ncols 163
nrows 73
xllcorner 709287.5
yllcorner 5203462.5
cellsize 25
NODATA_value -9999
2999.44 2986.83 2976.94 2968.80 2962.70 2957.56 2953.55 2948.98 2944.21 2938.60 2932.18 2925.68 2917.91 2911.80 2896.64 2885.36 2876.89 2865.28 2854.69 2843.62 2829.46 2813.89 2793.60 2762.55 2736.12 2720.67 2709.17 2694.55 2680.76 2672.95 2672.42 2682.30 2689.94 2684.93 2679.47 2679.98 2679.61 2676.26 2674.90 2675.10 2675.16 2675.70 2677.53 2683.71 2690.29 2700.18 2712.31 2722.88 2734.62 2753.64 2792.39 2827.97 2849.30 2842.51 2823.91 2805.58 2778.65 2750.97 2714.84 2682.50 2665.88 2637.44 2620.29 2604.35 2589.40 2575.38 2563.12 2555.85 2550.29 2545.30 2540.57 2533.87 2523.40 2516.80 2510.46 2501.23 2492.18 2484.60 2478.13 2474.29 2466.60 2457.14 2451.75 2438.56 2426.31 2414.15 2399.73 2384.11 2363.82 2346.58 2330.33 2310.52 2293.55 2278.89 2265.31 2248.80 2239.80 2227.60 2219.85 2218.40 2202.68 2214.64 2214.79 2218.25 2223.95 2232.81 2241.46 2250.36 2264.76 2281.19 2298.44 2310.47 2322.44 2339.18 2358.17 2386.59 2414.50 2424.87 2433.87 2438.70 2436.87 2431.20 2412.69 2389.86 2406.10 2421.95 2432.55 2457.30 2476.96 2489.20 2502.30 2513.72 2519.27 2523.66 2529.36 2534.78 2539.92 2546.26 2551.16 2556.12 2557.66 2560.14 2562.83 2565.83 2565.60 2574 2582.61 2593.78 2606.98 2617.33 2625.56 2634.42 2643.32 2649.71 2657.31 2659.70 2665.61 2672.62 2684.90 2692.84 2700.46 2711.34 2725.15
2995.12 2981.39 2970.14 2962.30 2955.46 2949.34 2943.62 2938.12 2932.67 2927.80 2921.30 2916.69 2907.69 2901.18 2887.12 2875.64 2867.19 2861.92 2848.69 2844.36 2836.87 2829.39 2805.72 2759.47 2724.82 2709.19 2699.47 2686.40 2674.87 2666.27 2661.93 2666.73 2677.62 2675.28 2670.54 2670.62 2671.30 2669.54 2667.18 2664.50 2661.10 2663.33 2664.30 2670.47 2681.12 2695.87 2703.33 2713.90 2723.54 2738.14 2768.84 2800.61 2822.12 2833.19 2819.26 2793.20 2768.84 2745.61 2716.36 2683.33 2655.34 2633.89 2617.47 2600.82 2585.11 2571.82 2559.23 2550.15 2541.36 2534.57 2531.86 2526.60 2514.23 2506.94 2500.84 2493.41 2489.45 2476.50 2469.20 2464.20 2455.41 2445.67 2438.27 2430.46 2416.12 2402.59 2389.90 2374.44 2357.68 2338.32 2322.89 2306.62 2292.41 2278.20 2264.97 2248.39 2229.59 2214.31 2209.45 2206.29 2197.61 2202.68 2201.68 2207.17 2215.31 2223.56 2232.18 2245.47 2258.87 2269.85 2284.22 2302.22 2322.30 2339.16 2363.54 2385.15 2400.10 2413.37 2421.10 2425.41 2424.12 2418.27 2393.66 2376.34 2394.93 2400.89 2413.39 2430.20 2458.60 2475.20 2499.68 2513.32 2516.73 2521.60 2527.51 2532.18 2537.33 2543.48 2550.42 2554.41 2559.23 2561.10 2565.50 2568.57 2570.56 2575.18 2580.87 2590.50 2605.64 2617.52 2627.17 2634.58 2644.64 2651.55 2658.70 2665.87 2669.67 2674.96 2684.27 2694.80 2708.48 2725.52 2736.54
2996.60 2981.12 2968.18 2957.29 2948.81 2941.80 2933.92 2927.30 2920.98 2914.95 2909.14 2906 2896.57 2886.67 2875.13 2863.76 2855.75 2848.98 2840.58 2835.40 2833.70 2826.37 2804.90 2749.80 2712.52 2696.70 2686.90 2678.39 2666.68 2659.60 2652.36 2652.32 2662.85 2664.33 2660.55 2661.38 2662.44 2663.61 2665.90 2658.38 2649.60 2647.92 2652.30 2656.10 2668.34 2682.13 2695.28 2702.98 2714.96 2732.17 2752.15 2781.62 2811.98 2816.45 2807.16 2788.43 2764.20 2735.17 2708.84 2692.70 2661.60 2632.62 2615.59 2593.84 2579.20 2565.10 2553.15 2543.70 2534.89 2526.60 2520 2514.13 2505.41 2497.53 2491.38 2482.22 2474.88 2466.30 2459.50 2453.46 2444.51 2435.61 2427.85 2420.79 2403.64 2390.96 2379.64 2361.92 2348.20 2329.76 2314.40 2298.68 2286.28 2272.22 2254.17 2237.12 2222.92 2210.22 2196 2195.35 2191.27 2190.11 2188.18 2198.62 2206.78 2216.29 2222.33 2239.57 2249.96 2261.44 2280.12 2296.67 2308.91 2338.65 2354.40 2370.91 2381.69 2397.16 2409.92 2413.10 2409.51 2402.26 2367.34 2368.17 2376.87 2384.67 2400.12 2418.79 2432.11 2456.18 2476.79 2503.71 2510.60 2514.30 2521.28 2527.86 2532.25 2536.89 2542.77 2547.96 2551.93 2555.22 2558.76 2562.32 2565.71 2572.10 2580.16 2594.27 2608.37 2620.50 2630.55 2637.16 2645.89 2651.96 2663.15 2666.80 2670.20 2678.62 2688.39 2705.37 2718.72 2727.14 2732.82
3002.91 2984.21 2967.30 2955.43 2943.53 2933.11 2924.10 2916 2908.32 2902.63 2897.29 2895.55 2888.42 2879.47 2865.36 2854.89 2840.97 2827.39 2816.23 2809.20 2804.90 2801.80 2796.17 2734.85 2702.34 2687.83 2673.52 2667.69 2658.43 2648.85 2643.50 2640.80 2648.78 2653.29 2649.39 2651.58 2653.51 2657.38 2662.31 2655.25 2643.83 2640.92 2643.86 2647.58 2657.55 2671.12 2680.80 2696.10 2707.60 2723.28 2742.80 2775.46 2798.78 2799.94 2778.32 2772.39 2746.64 2723.80 2705.58 2682.35 2647.17 2626.58 2603 2582.92 2569.15 2554.60 2542.87 2534.16 2526.59 2516.47 2509.60 2502.88 2494.58 2488.20 2478.68 2469.59 2463.35 2457.18 2450.92 2443.91 2434.96 2426.64 2418.60 2411.51 2393.67 2378.62 2364.53 2349.80 2334.33 2320.93 2307.52 2289.12 2277.72 2263.89 2245.79 2226.58 2213.17 2202.88 2187.20 2183.33 2178.20 2174.62 2180.45 2187.50 2199.44 2204.97 2216.68 2228.41 2241.92 2251.70 2268.63 2275.10 2300.66 2335.51 2347.48 2360.90 2372.35 2378.71 2389.10 2394.63 2387.93 2378.80 2352.73 2354.60 2363.21 2376.70 2393.40 2411.47 2426.23 2441.11 2457.97 2485.77 2500.78 2510.54 2515.90 2520.42 2525.12 2530.60 2535.70 2540.31 2542.92 2548.45 2553.23 2558.36 2564.66 2571.22 2578.88 2593.13 2607.20 2621.48 2630.62 2639.88 2649.20 2656.70 2662.91 2670.23 2676.72 2683.12 2694.29 2712.25 2720.11 2721.93 2727.71
3005.64 2979.17 2963.70 2951.10 2937.80 2924.93 2913.73 2904.25 2896.17 2889.83 2884.94 2886.25 2881.12 2874.92 2856.90 2842.52 2832.40 2820.20 2806.90 2797.38 2788.38 2781.16 2783.27 2731.80 2697.38 2680.16 2665.93 2656.60 2650.70 2640.73 2634.63 2631.14 2636.39 2643.70 2640.77 2642.30 2644.88 2651.92 2660.36 2652.66 2641.14 2639.20 2642.80 2646.39 2653.11 2666.36 2678.25 2690.76 2703.17 2721.63 2738.52 2763.40 2780.60 2769.35 2758.81 2745.90 2727.66 2708.11 2693.78 2679.47 2661.58 2641.28 2619.89 2582.10 2562.84 2547.46 2533.69 2523.52 2514.83 2505.70 2500.26 2492.85 2485.54 2475.87 2467.66 2459.62 2452.57 2445.12 2440.58 2431.72 2423.63 2416.43 2406.43 2397.47 2386.19 2370.55 2354.55 2340.18 2328.88 2314.12 2298.60 2280.30 2269.38 2253.39 2236.61 2218.38 2206.45 2193.19 2177.92 2167.21 2169.12 2158.75 2167.48 2181.60 2187.32 2196.62 2207.78 2216.18 2228.29 2236.47 2253.50 2274.67 2311.51 2326.37 2339.94 2355.70 2358.25 2366.22 2371.85 2372.71 2358.70 2348.63 2337.22 2346.67 2357.89 2374.36 2391.50 2408.78 2424.94 2436.22 2459.27 2486.63 2500.83 2507.58 2509.35 2512.70 2515.53 2522.94 2526.25 2535.38 2546.37 2552.87 2557.50 2564.18 2569.82 2573.98 2579.56 2593.33 2606.87 2615.50 2625.14 2633.35 2643.18 2653.30 2662.30 2670.15 2676.41 2686.16 2705.50 2709.28 2713.87 2720.52 2728.32
3033.88 2974.30 2956.90 2948.60 2931.79 2918.69 2905.98 2893.94 2885.23 2877.23 2871.72 2873.17 2866.70 2862.35 2852.51 2836.96 2824.84 2812.79 2798.20 2787.23 2774.79 2763.43 2762.81 2710.36 2685.90 2673.14 2657.32 2646.10 2638.41 2633.35 2625.12 2621.80 2623.88 2635.39 2631.62 2631.94 2637.88 2648.90 2658.18 2651.46 2642.10 2639.53 2643.23 2648.60 2655.96 2667.96 2680.90 2690.34 2707.14 2722.75 2742.62 2766.80 2775.37 2759.36 2738.60 2718.34 2706.43 2693.77 2680.10 2661.87 2647.97 2637.81 2624.94 2591.52 2554.70 2537.87 2525.23 2514.64 2504.90 2495.93 2489.61 2481.55 2474.80 2465.88 2457.80 2448.52 2441.68 2435.62 2429.29 2422.22 2415.37 2409.45 2397.21 2387.68 2376.90 2360.56 2345.31 2332.23 2317.56 2300.85 2282.93 2268.46 2255.44 2238.94 2226.30 2211.48 2193.70 2181.87 2167.75 2158.61 2156.87 2150.52 2162.97 2170.22 2177.54 2186.54 2196.79 2201.60 2216.82 2236.78 2257.18 2267.16 2289.87 2317.83 2333.87 2340.27 2332.75 2334.84 2346.16 2350.51 2336.77 2327.50 2324.88 2340.95 2356.50 2373.70 2391.31 2405.68 2416.50 2433.15 2453.27 2484.45 2492.12 2498.18 2501.77 2505.37 2504.67 2507.51 2509.47 2516.52 2528.47 2539.69 2547.16 2557.95 2566.14 2572.76 2579.76 2590.12 2598.78 2603.60 2608.85 2615.70 2623.50 2635.30 2649.59 2662.13 2672.23 2683.42 2700.98 2707.40 2711.36 2717.77 2724.92
3049.72 2983.69 2950.22 2940.13 2928.34 2911.97 2899.17 2886.75 2875.72 2866.55 2859.30 2855.12 2856.25 2851.51 2839.79 2829.39 2820.15 2804.10 2787.97 2777.42 2760.52 2746.10 2739.44 2704.31 2683.65 2668.70 2656.41 2641.60 2632.33 2628.37 2618.84 2612.96 2613.29 2625.77 2622.38 2623 2631.81 2644.31 2655.84 2651.51 2645.62 2639.40 2644.55 2651.56 2659.50 2670.57 2682.38 2693.56 2708.56 2722.36 2740.46 2760.56 2766.90 2756.21 2741.29 2720.98 2698.50 2674.13 2658.44 2645.76 2628.27 2611.87 2601.40 2594.40 2562.46 2531.41 2517.34 2506.40 2497.62 2489.60 2479.21 2473.54 2465.61 2456.10 2447.37 2440.53 2434.70 2427.92 2421.88 2414.33 2408.37 2398.45 2388.10 2379.66 2369.45 2352.12 2334.90 2321.55 2308.60 2291.64 2275.35 2258.46 2242.43 2223.84 2210.30 2199.82 2184.22 2170.38 2158.91 2152.14 2146.88 2141.36 2155.59 2160.57 2166.93 2174.82 2182.92 2191.70 2219.44 2230.42 2237.93 2245.55 2257.55 2269.33 2280.30 2289.85 2298.68 2302.76 2299.43 2298.67 2305.39 2305.39 2321.36 2341.22 2357.87 2375.43 2391.50 2398.60 2408.94 2426.70 2443.40 2462.86 2475.10 2481.37 2483.40 2484.40 2486.83 2489.80 2495.53 2505.12 2514.61 2523.88 2534.76 2544.51 2551.45 2559.18 2566.80 2577.23 2585.76 2592.58 2600.91 2607.61 2618.30 2629.34 2642.56 2652.84 2666.72 2682.45 2695.29 2700.60 2707.62 2714.58 2725.73
3064.85 3005.69 2953.44 2933.58 2920.34 2907.70 2893.37 2879.93 2867.94 2858.29 2848.93 2842.45 2841.10 2842.29 2836.41 2823.76 2814.92 2799 2784.71 2768.73 2748.89 2732.20 2720.80 2699.72 2682.12 2669.91 2657.89 2645.92 2631.40 2622.72 2614.10 2605.38 2604.36 2616.25 2610.87 2614.12 2624.63 2639.26 2651.23 2651.95 2648.79 2640.65 2642.45 2646.38 2654.62 2666.78 2678.40 2690.69 2703.87 2716.59 2732.17 2752.40 2746.60 2738.58 2734.13 2718.46 2699.58 2675.88 2654.30 2631.28 2615.22 2600.40 2586.70 2574.59 2567.62 2535.62 2515.58 2500.12 2488.90 2478.90 2472.38 2464.50 2459.30 2450.94 2442.39 2434.30 2427.10 2420.22 2415.43 2407.36 2399.70 2390.15 2380.41 2371.17 2359.80 2345.75 2328.98 2314.50 2297.91 2283.36 2268.88 2252.63 2238.34 2216.77 2200.60 2186.33 2174.60 2160.75 2151.58 2146.89 2137.13 2132.46 2144.96 2149.92 2154.19 2161.20 2168.10 2178.73 2198.46 2204.20 2211.23 2217.37 2228.77 2241.48 2253.80 2248.87 2255.18 2261.25 2267.60 2276.65 2290.71 2307.77 2325.28 2342.20 2358.80 2375.98 2393.30 2406.17 2418.77 2435.12 2448.71 2461.80 2470.88 2476.43 2483.62 2489.73 2496.72 2504.10 2511.61 2520.10 2529.57 2538.93 2549.20 2559.85 2568.16 2574.96 2580.29 2588.28 2594.68 2602.37 2611.10 2617.82 2624.40 2632.97 2642.34 2653.80 2662.27 2674.54 2690.61 2701.97 2708.27 2718.41 2732.56
3045.60 3023.22 2969.55 2935.45 2918.15 2906.21 2891.56 2877.96 2863.36 2851.44 2841.70 2831.81 2827.78 2831.11 2828.79 2818.30 2807.29 2791.26 2782.78 2767.67 2749.40 2732.30 2711.20 2693.73 2680.64 2670.33 2662.14 2649.22 2632.97 2620.29 2609.80 2600.90 2597.26 2607.40 2602.17 2605.89 2617.61 2632.50 2645.16 2649.84 2649.12 2643.97 2643.37 2647.88 2655.61 2666.79 2675 2687.12 2697.45 2706.62 2721.18 2734.18 2727.67 2717.75 2715.27 2708.12 2688.30 2666.79 2639.92 2616.21 2606.44 2592.91 2578.67 2565.62 2554.64 2549.83 2513.68 2496.11 2481.91 2471.88 2463.94 2455.82 2449.90 2442.60 2435.72 2428.43 2421.98 2414.66 2407.13 2398.71 2390.96 2382.97 2373.89 2363.86 2352.41 2338.77 2318.32 2304.10 2288.68 2274.59 2260.89 2244.54 2228.38 2207.80 2193.23 2180.71 2166.70 2156.47 2145.50 2136.68 2129.29 2124.19 2135.50 2137.55 2143.10 2149.84 2155.76 2168.50 2176.18 2177.86 2190.42 2201.80 2212.83 2218.76 2222.50 2229.80 2240.10 2255.71 2274.77 2291.44 2306.44 2320.75 2341.64 2363.75 2384.71 2403.16 2412.67 2424.40 2435.65 2445.51 2456.79 2467.62 2476.66 2484.95 2492.16 2497.36 2506.46 2514.62 2521.30 2529.66 2537.14 2546.15 2556.38 2563.23 2570.15 2578.64 2588.70 2595.78 2603.29 2609.76 2616.94 2623.67 2632.63 2640.66 2648.70 2654.65 2663.60 2670.77 2680.57 2694.60 2705.88 2719.50 2735.15
3033.25 3010.13 2982.86 2948.38 2921.62 2906.48 2891.21 2876.11 2862.40 2848.20 2837.28 2824.53 2816.80 2816.83 2818.82 2807 2800.80 2785.45 2775.73 2761.30 2745.78 2730.78 2710.90 2688.92 2677.20 2666.96 2657.62 2647.95 2633.19 2620.31 2609.51 2598.39 2592.62 2600.37 2594.25 2597.71 2610.22 2623.96 2636.84 2646.23 2648.63 2646.28 2644.50 2646.54 2655.45 2665.50 2677.30 2687.60 2689.42 2693.26 2703.14 2714.92 2713.18 2693.59 2692.19 2686.57 2671.90 2658.23 2626.19 2601.52 2590.37 2581.98 2570.37 2557.57 2545.62 2538.80 2532.33 2489.30 2475.62 2463.12 2452.32 2445.56 2440.37 2436.69 2429.66 2423.80 2417.15 2409.19 2400.88 2391.13 2383.28 2375.17 2365.76 2356.98 2345.90 2330.81 2308.54 2293.11 2280.51 2265.80 2251.64 2235.76 2219.96 2201.76 2187.43 2175.93 2162.79 2151.12 2138.96 2131.78 2122.42 2115.85 2122.76 2127.41 2132.70 2137.45 2143.23 2149.82 2155.51 2167.12 2179.78 2190.29 2200.65 2207.47 2219.61 2235.80 2255.40 2282.76 2305.95 2316.20 2325.88 2342.11 2366.96 2383.30 2397.55 2410.88 2423.67 2433.54 2443.98 2454.41 2464.44 2471.60 2479.61 2487.81 2495.20 2505.80 2513.17 2518.48 2524.62 2530.40 2538.63 2545.65 2553.33 2559.84 2567.44 2575.43 2585.79 2593.32 2601.91 2610.77 2616.78 2625.53 2632.86 2641.37 2649.94 2659.71 2670.53 2679.93 2693.20 2702.30 2710.42 2717.95 2724.65
3049.89 3008.50 2979.44 2956.97 2932.36 2912.70 2894.80 2877.87 2866.48 2853.44 2837.10 2819.57 2808.76 2800.65 2803.61 2802.17 2793.71 2782.50 2765.13 2752.37 2741.37 2727.86 2705.33 2684.84 2672.19 2663.20 2653.91 2644.45 2630.43 2619.86 2609.15 2599.26 2590.50 2594.33 2588.97 2591.10 2603.37 2615.51 2626.77 2639.61 2647.29 2645.75 2645.55 2644.81 2655.78 2667.41 2676.36 2684.81 2685.84 2686.53 2693.93 2697.27 2699.50 2679 2666.71 2663.64 2650.56 2635.32 2616.62 2585.79 2575.26 2567.13 2559.80 2548.33 2536.37 2524.69 2514.16 2490.52 2470.54 2455.34 2442.80 2434.64 2432.34 2428.84 2422.73 2413.45 2408.88 2401.54 2391.22 2380.28 2371.40 2364.20 2356.72 2345.79 2336.30 2314.47 2299.80 2283.30 2266.59 2258.35 2244.80 2230.30 2215.52 2197.34 2185.81 2173.31 2155.28 2140.81 2130.50 2123.20 2112.89 2106.58 2113.77 2116 2120.34 2123.78 2128.86 2135.36 2146.69 2159.31 2182.21 2190.73 2203.85 2219.80 2242.22 2268.48 2299.70 2309.63 2319.80 2330.37 2342.95 2356.98 2369.16 2385.89 2401.89 2416.54 2427.32 2437.97 2447.98 2457.72 2462.32 2467.38 2474.62 2482.88 2491.72 2502.80 2509.91 2515.67 2520.53 2527.93 2534.83 2543.35 2551.90 2558.71 2567.63 2576.33 2586.92 2595.59 2602.33 2611.19 2619.22 2626.61 2637.44 2647.89 2659.48 2670.51 2678.60 2687.81 2691.71 2694.20 2698.14 2703.20 2708.46
3046.27 3028.57 3001.69 2974.12 2949.40 2914.62 2889.81 2876.43 2865.87 2857.51 2840.92 2814.29 2802.62 2793.84 2785.87 2786.46 2775.80 2771.31 2761.23 2749.40 2735.90 2709.93 2693.18 2676.14 2667.30 2661.17 2650.59 2640.20 2628.98 2618.90 2609.17 2598.87 2590.71 2590.63 2588.79 2586.92 2596.62 2606.65 2616.60 2630 2643.65 2644.52 2644.62 2644.21 2653.28 2663.82 2670.94 2678.52 2680.26 2680.26 2681.15 2680.13 2682.90 2669.52 2648.88 2637.91 2632.36 2620.21 2602.64 2578.71 2561.84 2554.30 2546.50 2538.12 2526.73 2515.98 2503.62 2489.79 2471.55 2450.97 2434.59 2424.79 2420.81 2417.92 2413.89 2407.13 2404.27 2394.12 2385.59 2374.81 2365.11 2354.79 2346.46 2335.98 2319.62 2303.54 2290.57 2276.20 2262.96 2245.72 2230.94 2222.78 2208.10 2194.35 2183 2172.72 2149.72 2133.63 2123.36 2115.10 2107.11 2095.10 2104.19 2106.70 2107.43 2112.87 2133.89 2151.40 2164.51 2186.93 2211.59 2233.57 2249.50 2262.20 2272.66 2290.61 2297.16 2306.13 2317.84 2331.29 2345.45 2357.93 2374.80 2389.31 2405.68 2419.20 2429.10 2436.89 2442.76 2451.10 2456.43 2463.20 2473.73 2481.31 2489.65 2499.88 2507.60 2514.15 2519.78 2526.52 2531.13 2538.72 2545.20 2552.43 2564.92 2575.70 2585.75 2597.46 2606.30 2615.83 2625.36 2636.13 2648.83 2654.52 2658.46 2662.82 2668.56 2674.37 2678.61 2683.12 2689.19 2692.87 2698.50
3019.36 3018.21 3017.76 2994.73 2959.41 2933.28 2893.70 2870.16 2858.78 2849.67 2839.88 2804.84 2794.27 2789.10 2776.30 2767.83 2756.70 2751.84 2751.59 2744.23 2726.98 2708.59 2685.47 2673.42 2665.73 2658.40 2648.93 2636.50 2625.17 2614.20 2607.88 2598.20 2588.96 2588.10 2590.13 2583.26 2590.13 2597.63 2607.23 2618.81 2633.44 2642.51 2642.90 2643.44 2653.81 2662.46 2668.37 2675.29 2676.87 2678.16 2675.19 2670.26 2665.78 2654.60 2637.21 2618.63 2609.31 2605.34 2592.10 2569.64 2551.66 2541.79 2534.63 2527.63 2518.76 2508.33 2498.33 2484.72 2468.50 2447.96 2432.52 2420.16 2412.59 2407.27 2401.79 2398.66 2395.80 2387.20 2377.60 2367.87 2357.50 2347.11 2336.14 2323.52 2304.75 2290.48 2279.60 2268.12 2256.94 2247.25 2230.40 2212.42 2197.54 2188.72 2176.87 2164.67 2143.77 2130.22 2118.48 2107.78 2096.20 2085.82 2095.63 2100.10 2101.60 2111.19 2121.25 2143.26 2156.54 2173.67 2192.87 2214.57 2239.63 2252.47 2262.70 2272.76 2284.32 2296.26 2313.53 2330.95 2347.72 2361.54 2378.87 2394.31 2406.90 2414.72 2422.58 2429.27 2438.28 2445.19 2451.16 2459.51 2467.82 2476.45 2486.90 2494.29 2504.42 2510.53 2517.40 2523.67 2527.86 2528.15 2534.11 2550.98 2565.14 2576.19 2587.94 2599.59 2607.21 2615.73 2625.85 2634.10 2638.21 2643.25 2648.59 2654.31 2660.80 2665.22 2670.27 2675.20 2679.56 2686.10 2688.92
2994.87 2992.31 2997.37 2994.87 2958.21 2920.33 2885.50 2857.93 2845.70 2838.51 2823.68 2797.81 2781.97 2775.56 2767.98 2761.40 2745.61 2734.25 2729 2725.58 2717.19 2700.21 2682.87 2671.44 2667.13 2661.79 2650.26 2636.77 2622.60 2611.45 2603.72 2595.56 2586.58 2584.91 2590.30 2580.60 2583.61 2588.92 2597.81 2608.25 2620.90 2635.90 2638.45 2642.27 2652.84 2662.32 2665.93 2670.63 2670.89 2666.22 2662.17 2656.96 2652.28 2645.48 2622.48 2606.11 2588.78 2583.32 2581.33 2561.30 2539.67 2530.43 2525.10 2518.33 2511.81 2503.44 2492.16 2478.90 2461.56 2444.67 2429.66 2417.96 2408.35 2401.29 2396.46 2392.87 2392.45 2380.12 2370.46 2361.50 2349.73 2339.80 2328.70 2312.47 2296.82 2282.39 2272.88 2263.62 2252.97 2240.71 2227.30 2210.98 2190.51 2175.53 2165.45 2157.51 2136.71 2127.95 2114.76 2103.96 2090.43 2077.80 2088.75 2089.33 2093.95 2101.27 2105.60 2117.48 2129.59 2143.96 2164.38 2185.31 2212.51 2222.80 2229.62 2260.21 2277.12 2293.11 2311.66 2334.89 2351.85 2366.87 2381.66 2389.31 2398.73 2408.27 2416.28 2424.18 2431.96 2439.87 2447.35 2457.45 2466.60 2474.50 2481.79 2490.12 2497.63 2503.62 2509.45 2514.65 2515.58 2519.80 2524.50 2537.50 2559.96 2576.31 2581.93 2594.55 2601.12 2609.76 2616.80 2622.60 2627.65 2633.96 2640.52 2646.62 2651.62 2656.72 2661.27 2665.53 2668.53 2672.10 2675.65
2969.59 2965.19 2968.52 2969.92 2950.59 2899.45 2865.54 2848.47 2836.14 2824.62 2817.33 2793.41 2778.59 2766.55 2755.21 2745.72 2736.15 2726.27 2719.12 2714.68 2713.61 2697.80 2683.45 2674.14 2670.25 2664 2653.31 2636.62 2621.65 2607.94 2599.98 2592.80 2583.10 2580.68 2588.25 2578.41 2580.31 2584.84 2591.92 2600.82 2609.80 2626.27 2634.55 2642.61 2650.21 2656 2658.97 2663.55 2661.27 2657.60 2655.30 2652.80 2642.37 2632.81 2613.79 2593.77 2575.39 2559.20 2555.55 2537.75 2524.41 2518.41 2514.19 2511.30 2505.72 2496.70 2485.38 2472.37 2457.58 2441.23 2424.39 2412.92 2404.83 2397.67 2391.26 2387.17 2383.53 2371.53 2361.59 2352.23 2340.60 2325.60 2315.20 2301.93 2290 2274.59 2268.12 2256.75 2241.93 2232.22 2217.66 2199.30 2177.75 2163.33 2154.79 2147.89 2128.72 2117.30 2104.37 2091.19 2078.67 2069.12 2079.56 2080.65 2087.32 2090.10 2091.30 2101.47 2113.29 2128.19 2145.79 2168.31 2177.89 2205.11 2238.98 2261.97 2274.61 2293.15 2310.67 2333.88 2353.92 2366.47 2375.12 2384.65 2392.37 2398.98 2408.27 2418.57 2427.57 2436.30 2445.12 2453.69 2461.70 2467.51 2475.10 2481.94 2488.60 2494.63 2501.71 2507.40 2508.21 2511.86 2518.41 2528.90 2541.41 2558.35 2568.87 2580.31 2591.33 2598.98 2604.62 2611.15 2614.83 2621.38 2627.90 2635.87 2639.55 2641.85 2646.90 2650.77 2653.43 2657.50 2660.87
2953.56 2943 2936.20 2928.91 2917.85 2892.37 2852.18 2839.45 2831.58 2821.53 2807.83 2793.84 2778.62 2769.53 2760.80 2743.68 2731.82 2722.20 2717.71 2712.35 2706.80 2698.29 2689.17 2681.57 2675.41 2667.77 2654.58 2635.98 2620.48 2604.46 2594.13 2587.83 2580.84 2577.16 2583.17 2575.18 2577.58 2581.14 2586.87 2591.44 2601.67 2615.33 2627.62 2637.16 2642.85 2648.22 2656.10 2656.91 2654.21 2649.89 2647.48 2642.12 2626.72 2618.90 2599.93 2581.37 2560.45 2545.58 2532.78 2518.88 2509.86 2507.20 2506.60 2497.39 2492.66 2485.78 2476.68 2468.39 2454.22 2436.84 2419.65 2408.68 2401.70 2394.71 2386.89 2381.98 2372.97 2364.40 2354.89 2342.80 2330.36 2315.94 2304.20 2293.10 2280.16 2269.48 2260.89 2250.89 2236.82 2222.30 2205.48 2186.64 2165.51 2153.16 2144.83 2135.54 2118.34 2103.47 2091.75 2078.91 2068.62 2063.59 2071.76 2073.66 2079.80 2077.41 2080.60 2086.87 2101.84 2117.64 2135.17 2151.58 2170.35 2212.46 2233.59 2250.78 2267.38 2283.42 2298.96 2308.34 2334.88 2351.41 2370.32 2379.98 2387.37 2398.12 2406.31 2415.52 2422.30 2429.26 2435.66 2439.65 2442.86 2447.20 2449.60 2460.77 2472.40 2482.38 2492.30 2499.52 2503.88 2508.93 2513.82 2523 2533.80 2548 2561.76 2572.97 2581.52 2588.79 2594.83 2598.19 2603.52 2611.32 2616.87 2624.11 2628.46 2631.80 2636.40 2638.73 2643.78 2646.62 2649.35
2941.64 2929.69 2916.25 2904.37 2890.86 2877.44 2852.87 2839.27 2830.36 2818.54 2805.73 2795.85 2781.85 2767.72 2758.16 2745.23 2733.17 2722.32 2716.42 2712.19 2707.46 2701.70 2694.71 2686.68 2678.80 2668.94 2654.19 2634.86 2617.71 2602.85 2590.71 2583.35 2576.61 2573.77 2577.69 2572.44 2575.20 2578.23 2584.31 2587.72 2598.40 2611.16 2623.50 2633 2644.64 2646.87 2647.36 2647.65 2645.20 2637.43 2633.28 2629 2616.78 2605.66 2586.92 2565.58 2550.36 2531.20 2518.58 2508.21 2496.62 2493.10 2489.51 2480.18 2469.97 2464.71 2458.23 2454.31 2447.10 2433.10 2416.72 2405.53 2397.20 2390.68 2380.68 2372.19 2364.42 2355.87 2346.80 2334.38 2321.33 2309.58 2298.62 2287.79 2276.35 2263.90 2252.47 2242.25 2229.37 2211.62 2194.51 2170.93 2155.20 2144.14 2134.41 2124.21 2110.15 2095.62 2085.93 2070.20 2057.51 2057.37 2063.71 2064.45 2070.95 2068.44 2071.83 2079.28 2096.16 2111.44 2125.87 2145.12 2164.22 2178.66 2195.57 2218.63 2235.97 2254.31 2270.58 2295.71 2308.11 2325.76 2350.55 2371.92 2381.66 2391.41 2402.13 2409.94 2413.62 2414.98 2417.56 2420.69 2422.82 2425.30 2430.92 2439.55 2452.16 2464.76 2476.35 2484.64 2490.25 2497.31 2509.44 2522.13 2533.67 2544.80 2555.34 2564 2570.40 2575.35 2582.69 2589.48 2593.54 2599.18 2606.67 2612.22 2617.62 2621.66 2625.17 2631.12 2636.42 2639.70 2641.12
2933.26 2920.62 2908.65 2896.18 2882.43 2868.96 2854.62 2843.25 2836 2822.41 2807.87 2795.46 2785.85 2772.40 2759.41 2748.46 2738.35 2725.58 2715.62 2711.98 2708.42 2702.12 2695.81 2686.12 2678.37 2669.67 2651.34 2633.96 2618.29 2602.42 2588.83 2580.46 2572.97 2570.42 2572.37 2571.47 2574.59 2582.37 2591.62 2597.83 2608.16 2618.37 2625.78 2637.56 2639.53 2636.58 2639.76 2640.35 2640.20 2627.14 2622.10 2620.81 2606.87 2592.85 2570.90 2546.37 2532.47 2516.25 2506.18 2495.32 2484.94 2476.72 2473.10 2458.56 2454.38 2444.68 2438.80 2434.48 2430.82 2419.43 2412.64 2402.27 2390.79 2385.70 2377.70 2365.64 2356.62 2348.23 2338.37 2328.27 2317.64 2306.70 2295.50 2283.77 2273.57 2263.38 2245.62 2228.60 2212.85 2194.62 2175.50 2157.34 2143.10 2132.87 2122.19 2109.70 2095.77 2084.77 2078.37 2062.25 2048.37 2050.46 2056.50 2058.71 2061.36 2060.65 2063.42 2075.31 2088.46 2101.12 2114.95 2130.88 2147.29 2162.22 2179.60 2195.68 2211.30 2228.36 2247.58 2266.25 2285.17 2308 2328.32 2353.41 2373.10 2384.84 2395.58 2400.30 2399.63 2398.83 2402.62 2406.96 2411.66 2412.87 2417.39 2426.21 2440.69 2459.47 2471.17 2480.38 2490.81 2501.26 2509.36 2519.70 2529.82 2540.66 2551.61 2559.80 2567.26 2573.60 2579.19 2586.37 2594.50 2599.62 2603.92 2608.60 2612.77 2615.50 2618.52 2623.17 2625.69 2627.52 2630.87
2930.43 2917.44 2905.37 2892.77 2880.67 2868.83 2858.12 2850.63 2840.61 2825.77 2809.28 2793.71 2784.40 2778.48 2767.32 2752.65 2739.81 2728.86 2721.90 2714.90 2708.92 2703.23 2697.42 2686.42 2678.20 2669.92 2654.26 2634.83 2617.70 2600.19 2585.76 2577.48 2571.87 2569.38 2571.11 2571.60 2573.62 2586.10 2597.48 2603.58 2609.35 2618.70 2622.52 2631.37 2628.86 2627.63 2632.82 2631.86 2628.23 2618.26 2612.41 2608.26 2598.90 2583.12 2553.22 2529.96 2515.11 2504.52 2492.42 2482.33 2471.73 2462.44 2453.34 2444.63 2437.75 2430.25 2422.69 2416.97 2413.62 2409.62 2401.62 2395.37 2386.20 2376.45 2368.16 2361.52 2350.11 2340.80 2331.98 2321.45 2309.18 2300.51 2290.22 2278.54 2261.20 2248.54 2228.39 2210.56 2192.59 2172.82 2155.12 2140.70 2131.10 2123.60 2111.10 2097.85 2085.37 2070.72 2062.90 2049.57 2040.80 2045.41 2049.60 2052.60 2051.37 2051.14 2056.52 2068.48 2080.87 2093.50 2112.72 2146.10 2165.90 2176.62 2198.89 2212.21 2227.51 2249.32 2267.46 2289.91 2308.69 2325.87 2341.39 2358.63 2369.82 2380.71 2391.33 2395.17 2394.30 2387.28 2389.51 2394.88 2397.84 2399.30 2400.35 2408.79 2424.12 2442.72 2461.50 2476.33 2484.71 2494.17 2498.75 2507.40 2517.55 2532.66 2544.69 2552.71 2559.57 2564.80 2569.12 2576.64 2583.87 2590.44 2594.29 2597.85 2601.47 2604.56 2608.34 2611.57 2616.70 2616.38 2618.21
2931.46 2919.37 2903.78 2894.51 2884.47 2872.82 2859.71 2846.18 2833.30 2820.26 2807.72 2795.90 2784.27 2776.62 2774.64 2765.11 2749.43 2737.53 2726.10 2716.68 2710.25 2706.13 2695.82 2687.62 2678.48 2667.90 2652.82 2635.50 2615.65 2598 2584.10 2574.12 2570.78 2567.82 2570.44 2570.86 2573.65 2585.84 2594.71 2604.54 2612.20 2618.89 2623.82 2628.23 2626.50 2626.85 2627.35 2626.96 2623.57 2609.75 2599.53 2590.67 2577.12 2571.48 2543.88 2514.85 2498.38 2489.51 2479.69 2470.12 2458.32 2448.36 2437.67 2428.87 2421.87 2415.76 2408.17 2403.27 2398.73 2397.45 2391.36 2383.78 2378.67 2367.68 2359.39 2348.73 2337.30 2328.87 2321.96 2308.31 2299.37 2289.20 2279.45 2262.57 2245.98 2228.88 2204.11 2184.83 2169.48 2155.50 2140.12 2127.32 2116.42 2107.70 2096.87 2085.70 2072.51 2057.20 2048.88 2038.56 2033.58 2038.63 2040.72 2043.75 2043.10 2043.40 2050.25 2061.11 2071.30 2082.34 2109.76 2139.53 2161.95 2195.70 2202.79 2217.53 2231.11 2247.72 2267.51 2299.50 2322.87 2334.26 2345.76 2356.45 2372.10 2379.93 2385.87 2385.14 2385.96 2381.30 2382.84 2382.90 2382.65 2386.60 2390.75 2399.54 2412.45 2429.60 2450.83 2466.68 2476.73 2490.56 2498.17 2506.61 2516.34 2530.91 2538.21 2545.52 2552.77 2557.85 2561 2566.60 2570.37 2574.12 2579.31 2583.27 2588.40 2591.26 2596.23 2602.15 2604.15 2605.48 2607.68
2931.42 2918.62 2904.10 2891.72 2879.26 2866.54 2854.76 2841.46 2827.71 2817.30 2806.90 2797.22 2788.46 2777.89 2771.32 2769.70 2757.22 2741.10 2727.69 2716.39 2707.83 2701.37 2695.86 2687.88 2677.21 2661.47 2645.59 2630.33 2610.71 2593.87 2579.91 2571.22 2567.66 2564.71 2567.38 2568.58 2569.71 2579.92 2587.50 2596.16 2604.29 2618.56 2621.87 2619.16 2621.37 2622.59 2625.96 2624.76 2619.91 2607.42 2601.47 2581.16 2559.56 2538.14 2523.55 2503.27 2487.75 2477.30 2466.29 2457.29 2445.11 2434.50 2424.62 2413.81 2406.15 2401.56 2396.33 2392.18 2389.50 2389.22 2378.91 2373.40 2366.93 2359.87 2351.62 2342.50 2333.63 2327.92 2317.52 2302.54 2290.67 2276.73 2263.60 2246.20 2224.46 2203.15 2182.42 2161.47 2149.81 2141.31 2129.25 2115.50 2102.39 2092.92 2082.90 2064.53 2053.93 2040.51 2030.98 2029.84 2025.81 2031.50 2033.36 2036.11 2035.34 2037.70 2042.31 2055.52 2070.32 2086.47 2104.35 2123.29 2153.20 2172.75 2184.28 2201.51 2220.58 2241.11 2260.70 2294.82 2320.78 2333.17 2343.63 2354.75 2369.93 2375.79 2378.91 2380.56 2381.37 2381.50 2383.56 2382.84 2382.56 2383.10 2385.13 2393.51 2404.37 2420.75 2437.85 2453.30 2468.37 2483.95 2493.80 2503.36 2512.50 2520.75 2525.37 2530.70 2536.75 2540.88 2544.69 2548.87 2557.13 2561.47 2568.28 2571.97 2575.37 2580.97 2585.34 2587.57 2590.13 2593.20 2598.20
2928.57 2916.77 2906.61 2892.41 2878.65 2864.19 2853.19 2839.31 2824.85 2812.89 2804.93 2796.70 2793.29 2782.11 2768.39 2764.46 2758.64 2747.35 2731.20 2716.11 2705.98 2697.93 2691.91 2685.85 2672.33 2655.96 2638.37 2621.50 2604.92 2588.30 2576.70 2568.30 2564.12 2561.89 2563.52 2566.70 2563.87 2572.41 2576.60 2584.45 2591.79 2604.48 2608.97 2609.54 2615.84 2617.25 2617.41 2614.23 2609.13 2603.50 2601.19 2599.79 2587.10 2540.75 2519.17 2501.36 2485.12 2470 2454.92 2444.10 2428.95 2419.21 2412.33 2402.66 2394.88 2387.23 2383.45 2380.50 2373.60 2368.10 2361.62 2356.15 2353.77 2353.60 2348.98 2340.88 2331.84 2321.17 2306.30 2291.75 2277.30 2265.80 2248.50 2228.19 2208.81 2187.37 2171.32 2148.75 2133.44 2121.75 2113.11 2098.96 2088.47 2074.43 2064.59 2049.62 2035.31 2026.58 2018.89 2024.13 2020.60 2024.90 2024.71 2026.83 2029.21 2035.54 2046.40 2059.93 2074.71 2090.79 2107.32 2124.18 2142.85 2161.34 2179.41 2201.80 2222.87 2245.92 2275.30 2307.66 2319.80 2332.16 2343.27 2359.22 2369.83 2375.63 2375.82 2378.37 2377.40 2375.14 2376.12 2376.43 2377.16 2377.37 2382.57 2389.17 2401.40 2415.32 2433.54 2449.78 2465.81 2479.21 2486.80 2496.12 2500.79 2507.50 2516.70 2523.86 2529.51 2534.50 2540.19 2545.43 2548.70 2554.73 2557.87 2561.34 2565.51 2572.65 2576.18 2577.91 2582.12 2584.77 2587.56
2926.19 2916.70 2905.10 2894.60 2878.13 2863.27 2850.32 2838.25 2823.27 2811.90 2801.80 2796.97 2783.85 2774.10 2764.20 2759.15 2754.57 2743.56 2729.69 2718.37 2707.22 2695.90 2687.27 2679.32 2668.92 2651.60 2631.81 2614.43 2598.69 2584.32 2572.67 2564.75 2560.85 2559.43 2560.56 2563.32 2559.64 2564.36 2569.17 2576.21 2583.98 2592.70 2598.46 2606.86 2612.31 2614.30 2613.11 2605.54 2606.40 2603.37 2595.81 2591.60 2578.58 2548.50 2526.40 2505.44 2485.94 2466.78 2448.37 2429.86 2415.67 2405.65 2397.71 2390.65 2382.79 2374.79 2369.12 2365.43 2359.45 2354.84 2350.63 2348.44 2348.60 2343.80 2340.20 2331.76 2318.72 2306.38 2294.39 2279.37 2264.90 2250.87 2230.40 2200.22 2189.18 2163.89 2150.40 2133.69 2122.73 2106.46 2095.37 2082.41 2072.43 2063.30 2044.38 2034.39 2022.40 2014.22 2011.91 2016.34 2012.97 2015.38 2018.68 2019.45 2023.21 2028.86 2041.59 2056.52 2072.63 2089.78 2107.19 2125.51 2143.37 2160.66 2178.38 2197.39 2218.90 2257.37 2287.12 2306.70 2317.88 2331.51 2347.12 2359.42 2368 2369.46 2371.19 2371.52 2373.15 2373.17 2375.44 2375.90 2376.64 2377.64 2382.91 2391.59 2404.20 2418.90 2433.44 2447.87 2461.42 2471.57 2481.54 2489.78 2497.23 2506.56 2512.55 2517.78 2522.88 2527.11 2532.95 2537.25 2542.97 2547.62 2550.97 2554.44 2558.93 2562.66 2564.26 2568.77 2569.76 2570.26 2573.72
2924.25 2912.98 2902.66 2890.66 2874.17 2861.12 2847.63 2834.88 2823.15 2810.80 2802.12 2787.98 2775.72 2765.70 2759.29 2754.98 2747.46 2735.60 2721.47 2705.16 2696.60 2694.37 2685.71 2673.30 2659.51 2644.23 2627.25 2608.92 2593.88 2582.56 2569.42 2562.23 2557.34 2556.72 2557.20 2559.31 2556.40 2558.20 2564.63 2575.30 2583.35 2588.66 2594.60 2603.97 2612.72 2608.19 2601.46 2600.84 2599.77 2595.26 2587.44 2579.40 2565.54 2547.20 2535.63 2529.80 2506.86 2475.50 2443.22 2425.23 2408.18 2396.37 2386.22 2378.29 2372.80 2365.55 2358.92 2354.40 2350.56 2349.65 2349.65 2347.47 2345.70 2335.70 2326.63 2318.13 2305.80 2292.78 2279.39 2267.47 2254.12 2238.76 2213.77 2186.56 2165.38 2151.10 2133.36 2117.98 2102.28 2089.60 2078.69 2068.78 2061.23 2043.46 2027.54 2017.79 2006.16 2000.30 2006.80 2007.91 2007.50 2007.32 2011.97 2015.30 2018 2022.40 2036.16 2053.36 2069.27 2086.56 2104.30 2121.41 2138.44 2157.87 2180.61 2203.55 2219.23 2235.60 2266.22 2296.52 2318.82 2331.19 2348.76 2359.33 2366.97 2367.17 2370.20 2375.40 2373.90 2373.38 2375.69 2376.10 2379.18 2383.63 2390.92 2398.20 2409.43 2422.95 2435.38 2447.11 2457.86 2466.36 2475.52 2483.12 2492.34 2498.91 2504.26 2508.73 2512.39 2516.70 2520.37 2525.85 2529.23 2533.58 2536.88 2538.33 2543.40 2549.87 2554.20 2555.46 2559 2562.93 2564.96
2916.22 2906.75 2897.91 2887.62 2872.87 2858.60 2848.28 2836.34 2823.14 2809.94 2798.26 2784.47 2770.77 2762.40 2752.40 2747.95 2737.63 2725.40 2708.89 2696.42 2682.12 2676.55 2671.84 2662.71 2649.43 2634.13 2619.62 2604.21 2588.57 2578.11 2569.10 2560.37 2555.40 2553.87 2551.78 2554.13 2551.60 2552.97 2558.90 2569.10 2578.35 2582.62 2589.55 2596.23 2600.30 2592.35 2590.20 2589.39 2592.37 2588.90 2580.40 2571.91 2557.20 2540.11 2525.61 2513.43 2505.84 2471.67 2445.38 2423.83 2404.63 2390.40 2379.71 2371.14 2363.56 2358.13 2353.36 2350.12 2349.20 2349.29 2349.28 2351.85 2343.87 2328.95 2313.18 2301.51 2293.95 2280.51 2267.19 2254.50 2239.97 2227.47 2210.35 2178.80 2153.44 2132.39 2114.56 2101.95 2080.56 2069.86 2060.76 2054.50 2051.52 2022.52 2007.82 1995.40 1991.20 1996.60 1999.93 2000.60 1997.93 2003.92 2007.16 2010.43 2011.57 2022.28 2036.60 2053.30 2069.44 2086.32 2104.12 2121.81 2139.91 2158.31 2176.54 2212.90 2237.82 2255.59 2263.60 2288.64 2321.54 2336.70 2351.40 2358.12 2364.27 2365.56 2366.70 2369.45 2372.37 2373.95 2375.17 2378.44 2381.37 2385.54 2392.52 2400.57 2410.73 2421.83 2431.51 2441.10 2448.90 2457.88 2466.46 2474.94 2480.25 2485.12 2491.17 2498.64 2505.56 2508.20 2512.87 2514.89 2518.88 2524.63 2528.66 2532.39 2534.79 2538.11 2542.59 2546.42 2548.37 2550.57 2551.56
2908.87 2900.43 2894.17 2886.38 2874.86 2859.55 2847.71 2832.17 2818.26 2805.73 2794.26 2781.90 2770.15 2756.38 2743.10 2731.67 2723.46 2713.83 2700.95 2687.10 2673.66 2660.73 2655.76 2648.33 2636.39 2625.13 2608.62 2595.15 2581.78 2573.60 2566.87 2559.68 2553.66 2550.55 2548.50 2548.62 2549.34 2548.95 2553.27 2562.10 2571.87 2575.47 2582.48 2592.47 2591.79 2583.35 2585.58 2581.94 2580.69 2581.57 2577.58 2568.30 2553.77 2537.95 2523.59 2505.32 2492.17 2478.60 2455.42 2422.80 2397.64 2383.70 2372.73 2364.79 2358.80 2354.32 2351.11 2349.27 2349.34 2349.32 2350.20 2350.89 2339.96 2323.14 2307.82 2289.21 2279.86 2268.66 2255.45 2242.72 2220.12 2206.85 2182.30 2164.92 2141.37 2118.55 2092.87 2080.88 2066.58 2051.98 2043.81 2036.41 2020.70 2005.84 1992.54 1983.17 1986.83 1991.30 1991.71 1992.43 1993.34 1997.98 2002.60 2003.10 2009.26 2023.30 2038.70 2054.87 2071.20 2086.92 2103.51 2120.43 2138.64 2159.41 2188.30 2205.37 2256.56 2277.73 2294.56 2310.30 2321.52 2334.45 2347.12 2360.45 2358.70 2363.50 2363.97 2364.19 2364.97 2366.94 2370.96 2374.11 2379.65 2388.11 2394.40 2403.42 2411.46 2417.30 2421.54 2429.42 2439.35 2448.19 2457.32 2462.86 2470.66 2479.53 2483.20 2488.18 2493.92 2496.29 2499.52 2498.90 2500.61 2505.34 2512.94 2518.12 2521.37 2523.84 2528.79 2535.51 2540.10 2543.88 2548.83
2904.76 2894.11 2886.21 2881.56 2872.33 2855.94 2844.40 2829.87 2815.28 2805.19 2790.63 2774.20 2759.90 2746.36 2733.57 2721.41 2710.60 2700.23 2689.56 2676.94 2664.15 2651.41 2639.17 2632.77 2622.27 2613 2599.30 2587.70 2574.75 2569.37 2568.69 2558.90 2551.53 2546.93 2544.12 2542.76 2546.87 2545.61 2547.95 2555.50 2564.35 2565.81 2573.78 2583.36 2582.50 2576.52 2573.50 2573.72 2571.42 2571.36 2566.32 2559.20 2544.86 2531.40 2517.88 2504.94 2486.90 2468.45 2453.42 2433.27 2391.54 2376.88 2366.21 2359.63 2356.28 2353.80 2350.21 2349.37 2349.27 2349.82 2352.37 2340.89 2329.21 2317.68 2301.67 2280.53 2261.38 2255.43 2245.41 2229.84 2206.87 2185.47 2160.95 2143.88 2125.61 2098.63 2081.43 2065.17 2053.79 2041.20 2028.67 2020.19 2006.30 1990.75 1979.69 1978.80 1979.60 1982.31 1982.69 1984.35 1990.31 1991.82 1993.86 1996.31 2006.97 2021.34 2037.34 2054.43 2071.41 2088.28 2105.48 2123.34 2140.58 2157.45 2175.48 2203.39 2240.64 2272.12 2296.63 2310.58 2324.45 2333.70 2343.63 2352.11 2352.90 2356.59 2355.91 2355.72 2357.12 2354.86 2357.40 2368.68 2379.23 2387.51 2394.66 2403.40 2409.61 2414.66 2420.80 2428.59 2439.40 2446.87 2454.60 2459.84 2465.54 2471.11 2474.65 2477.40 2480.32 2482.92 2478.89 2477.20 2479.68 2481.58 2492.62 2499.36 2505.56 2510.93 2515.67 2522.73 2525.76 2530.80 2535.63
2909.70 2892.71 2881.23 2873.72 2868.33 2853.12 2839.50 2824.92 2811.46 2801.81 2785.37 2769.77 2752.90 2737.72 2725.40 2712.68 2700.39 2691.88 2680.26 2666.93 2655.92 2641.95 2630.22 2618.73 2609.20 2597.88 2586 2574.71 2568.12 2566.45 2567.37 2555.27 2548.35 2543.37 2540.10 2540.40 2542.31 2540.17 2542.22 2546.44 2552.62 2553.41 2563.70 2573.96 2573.27 2564.87 2564.75 2563.85 2561.50 2559.20 2557.29 2549.52 2540.10 2525.70 2510.60 2491.22 2466.96 2449.39 2433.30 2424.89 2391.54 2375.58 2368.10 2361.90 2360.78 2360.62 2357.60 2355.51 2354.60 2354.97 2344.65 2332.35 2318.37 2306.78 2295.38 2273.78 2255.42 2235.70 2236.63 2224.93 2205.40 2168.77 2136.71 2117.75 2099.14 2082.58 2068.80 2056.70 2042.22 2030.73 2017 2007.57 1995.72 1983.53 1972.35 1971.23 1974.23 1974.83 1978.81 1982.59 1985.46 1985.93 1987.66 1990.72 2003.68 2019.80 2034.43 2050.62 2066.88 2082.68 2102.13 2129.87 2155.68 2172.56 2185.78 2232.60 2263.70 2283.10 2295.91 2313.80 2324.30 2334.60 2342.36 2349.34 2350.90 2348.91 2343.85 2340.85 2335.60 2332.78 2336.86 2344.25 2348.54 2358.80 2377.26 2400.87 2409.79 2416.72 2422.56 2427.86 2431.28 2438.35 2443.40 2448.13 2452.12 2456.66 2459.44 2463.70 2464.59 2459.45 2458.87 2456.39 2455.76 2455.28 2461.79 2477 2492.47 2500.34 2505.70 2511.97 2516.87 2520.95 2524.18
2925.60 2900.38 2878.65 2867.64 2862.20 2850.92 2839.59 2824.21 2809.30 2793.18 2777.62 2761.75 2746.64 2731.78 2717.86 2705.19 2692.43 2681.50 2670.59 2657.89 2646.54 2633.12 2619.95 2609.70 2598.43 2587.23 2574.39 2564.12 2564.50 2564.23 2558.70 2551.67 2545.33 2540.44 2536.97 2537.37 2537.20 2535.54 2535.15 2538.93 2543.71 2542.81 2553.26 2566.50 2561.16 2555.81 2558.30 2552.63 2551.76 2547.79 2545.58 2536.59 2527.80 2516.70 2498.68 2471.17 2452.35 2435.70 2421.22 2406.96 2392.63 2384.13 2378.58 2377.28 2375.36 2373.75 2369.92 2365.32 2360.14 2349.10 2335.51 2321.95 2310.16 2296.37 2284.23 2264.87 2239.13 2223.92 2221.36 2217.80 2189.86 2155.20 2118.44 2102.67 2086.87 2070.87 2055.65 2041.59 2029.45 2017.70 2008.50 1995.78 1985.89 1973.46 1966.60 1965.47 1969.67 1970.85 1973.94 1977.81 1979.85 1980.18 1981.95 1989.35 2002.59 2017.14 2032.53 2049.12 2066.43 2082.50 2102.25 2119.18 2136.12 2160.90 2198.87 2214.34 2268.98 2283.43 2296.82 2315.79 2324.20 2331.54 2338.39 2343.65 2342.38 2338.37 2331.66 2324.37 2320.97 2318.31 2322.20 2320.75 2329.40 2341.65 2354.97 2372.53 2385.97 2406.30 2413.76 2419.17 2422.76 2427.22 2430.59 2437.66 2439.87 2442.62 2447.13 2447.53 2447.16 2436.60 2433.66 2430.18 2430.93 2437.71 2444.32 2459.79 2481.60 2488.91 2493.92 2498.60 2501.30 2505.64 2506.73
2938.18 2911.86 2888.31 2864.41 2853.31 2843.39 2833.11 2824.77 2813.78 2798.83 2782.52 2762.14 2746.40 2730.87 2717.59 2707.50 2692.46 2677.23 2660.84 2652.20 2635.54 2622.94 2608.81 2599.30 2588.33 2579.40 2568.70 2554.11 2551.60 2552.53 2546.80 2545.10 2540.56 2536.47 2533.59 2534.27 2533.70 2532.86 2532.40 2535.70 2537.20 2536.50 2543.42 2554.90 2550.73 2543.73 2546.94 2545.71 2543.60 2539.90 2531.94 2522.93 2517.63 2512.40 2500.89 2469.66 2450.10 2434.20 2423.30 2413.10 2407.90 2404.59 2401.17 2395.30 2393.55 2387.50 2375.41 2361.70 2349.84 2335.78 2324.82 2312.30 2297.40 2283.97 2272.67 2253.85 2223.75 2205.37 2210.30 2204.13 2162.42 2135.11 2106.69 2089.31 2076.55 2061.91 2046.91 2031.54 2018.51 2006.25 1994.26 1986.56 1976.20 1965.66 1959.36 1962.46 1966.11 1965.20 1971.80 1971.40 1974.39 1973.69 1975.59 1983.43 1997.60 2012.77 2028.34 2043.80 2059.56 2072.40 2119.12 2147.50 2154.28 2168.37 2182.10 2203.81 2224.19 2280.13 2295.46 2309.30 2322.32 2331.90 2336.18 2339.14 2336.92 2330.37 2321.15 2312.40 2302.84 2299.80 2296.54 2305.62 2314.95 2324.50 2336.79 2351.46 2374.62 2396.42 2405.66 2410.82 2418.36 2422.70 2426.28 2430.88 2433.37 2433.84 2436.63 2433.88 2428.66 2421.56 2415.50 2413.53 2416.37 2423.72 2430.42 2441.55 2458.38 2472.30 2478.10 2485.51 2487.30 2488.64 2490.70
2927.60 2921.14 2902.63 2870.46 2849.31 2837.70 2828.75 2822.81 2814.38 2794.54 2778.42 2763.59 2747.38 2732.62 2717.81 2704.57 2690.31 2673.30 2659.60 2641.21 2627.15 2613.93 2601.83 2590.75 2580.89 2567.84 2562.97 2545.79 2539.60 2535.51 2535.66 2534.90 2533.12 2530.41 2529.85 2530.65 2530 2529.90 2529.58 2529.27 2526.12 2525.57 2529.60 2539.12 2545.76 2535.96 2526.77 2526.46 2518.98 2518.30 2515.89 2512.40 2504.75 2495.47 2482.14 2468.91 2452.80 2439.85 2431.71 2427.30 2421.84 2416.15 2414.32 2409.40 2392.56 2375.50 2362.37 2351.31 2338.14 2323.46 2311.97 2301.87 2286.76 2272.10 2259.37 2239.63 2214.29 2184.45 2182.89 2182.70 2149.16 2117.37 2096.80 2078.88 2062.95 2051.14 2038.70 2021.77 2008.23 1995.56 1983.93 1975.59 1966.63 1958.92 1955.76 1958.18 1959.84 1963.67 1966.71 1966.44 1968.17 1968.77 1970.61 1981.70 1994.55 2009.22 2024.11 2040.18 2057.65 2075.82 2095.56 2123.13 2179.50 2195.81 2202.39 2243.67 2259.35 2273 2289.96 2301.94 2315.89 2324.17 2330.19 2331.32 2326.72 2317.50 2306.70 2295.23 2285.44 2282.71 2285 2292.23 2300.70 2310.57 2324.52 2336.58 2352.30 2374.26 2386.50 2401.39 2407.27 2411.50 2418.12 2423.50 2421.12 2424.21 2427 2426.10 2413.70 2405.27 2405.18 2404.20 2407.30 2412.13 2418.57 2429.15 2440.64 2448.29 2454.87 2460.70 2464.29 2468.76 2474.62
2899.88 2905.20 2903.80 2886.87 2850.51 2836.93 2827.89 2819.53 2808.14 2790.11 2773.90 2759.37 2744.68 2730.67 2716.90 2702.30 2686.64 2671.58 2659.51 2645.61 2627.32 2610.30 2598.16 2585.46 2571.69 2560.10 2556.37 2541.29 2532.12 2526.63 2526.45 2525.58 2524.76 2523.89 2524.12 2522.44 2524.15 2525.12 2521.60 2520.80 2519.14 2521.92 2524.60 2532.35 2536.55 2534.52 2527.88 2518.60 2505.86 2504.79 2506.88 2505.15 2495.15 2487.90 2478.37 2474.28 2461.27 2455.36 2446.91 2439.25 2430.62 2425.70 2415.32 2399.82 2379.90 2363.50 2348.85 2336.50 2325.63 2310.37 2299.97 2288.37 2278.64 2264.81 2247.16 2228.23 2200.75 2168.76 2156.88 2161.91 2132.36 2101.89 2087.48 2070.37 2052.88 2038.58 2024.52 2009.88 1998.97 1986.77 1974.71 1964.23 1957.21 1951.36 1950.68 1953.65 1956.50 1957.81 1960.67 1961.44 1962.73 1962.60 1966.60 1980.75 1995.64 2010.86 2027.33 2043.68 2059.48 2077.26 2095.97 2118.79 2145.69 2202.58 2228.35 2247.80 2260.92 2276.55 2290.36 2299.32 2309.32 2317.87 2323.43 2320.70 2316.60 2307.78 2293.77 2279.20 2271.48 2271.21 2272.62 2277.56 2286.41 2297.89 2308.37 2322.20 2335.23 2350.78 2372.44 2389.73 2397.94 2401.60 2399.20 2400.83 2403.16 2406.37 2407.62 2406.80 2402.98 2401.26 2398.62 2397.11 2406.25 2408.21 2415.15 2418.37 2427.96 2432.91 2439.76 2444.12 2448.48 2456.91 2468.56
2885.44 2889.45 2890.52 2885.50 2868.59 2844.69 2822.96 2811.88 2800.87 2783.80 2766.34 2750.70 2736.62 2724 2710.20 2695.79 2683.63 2672.80 2658.97 2647 2637.16 2620.27 2599.69 2581.67 2566.69 2552.65 2542.96 2534.83 2526.52 2521.98 2521.43 2520.41 2518.72 2517.64 2516.55 2515.43 2517.25 2518.30 2516.35 2516.42 2516.19 2516.65 2523.81 2528.63 2528.66 2526.95 2524.89 2518.98 2509.68 2498.29 2498.39 2496.76 2495.90 2499.48 2491.77 2481.85 2466.75 2448.53 2441.46 2434.30 2428.70 2416.90 2399.52 2384.26 2369.59 2353.20 2337.35 2323.44 2308.85 2295.22 2288 2279.58 2265.90 2243.70 2227.31 2214.30 2197.84 2173.17 2139.66 2130.97 2111.61 2087.40 2070.85 2060.75 2044.80 2028.30 2014.96 2001.63 1988.48 1978.18 1966.36 1955.14 1948.42 1946.30 1946.71 1950.45 1950.75 1952.92 1953.69 1954.84 1957.61 1956.84 1965.73 1979.30 1993.67 2010.40 2026.95 2043.94 2062.45 2079.82 2095.82 2115.26 2135.86 2159.40 2204.81 2208.45 2245.69 2272.90 2283.18 2294.27 2302.54 2310.23 2314.85 2310.22 2306.66 2296.29 2284.73 2269.56 2258.77 2261.23 2261.50 2264.10 2273.64 2283.59 2294.20 2305.63 2320.53 2342.33 2367.75 2380.12 2387.56 2390.30 2387.66 2390.63 2390.43 2389.94 2387.90 2384.87 2393.19 2397.45 2394.25 2389.31 2393.34 2400.53 2409.95 2417.41 2422.36 2428.52 2431.62 2434.70 2437.70 2447.71 2458.43
2880.53 2881.59 2879.15 2873.72 2867.71 2856.18 2833.35 2807.37 2793.40 2777.85 2761.37 2746.22 2729.10 2716.38 2705.20 2691.86 2680.72 2666.42 2652.87 2642.72 2632.80 2622.21 2602.12 2581.80 2563.80 2543.51 2532.61 2529.68 2522.89 2518.68 2518.13 2515.73 2512.47 2510.86 2510.70 2511.59 2512.40 2513.26 2512.59 2511.90 2511.62 2514.50 2521.96 2524.92 2524.76 2523.61 2523.85 2522.88 2512.19 2507.11 2502.69 2500.71 2501.46 2497.95 2487.48 2476.58 2463.58 2454.56 2445.96 2439.52 2432.87 2421.16 2406.22 2390.38 2378.23 2355.87 2335.43 2318.33 2302.59 2287.59 2273.62 2260.26 2249.78 2231.39 2217.58 2202.20 2187.42 2166.41 2143.36 2118.37 2094.61 2075.53 2057.37 2043.28 2033.42 2017.84 2004.70 1991.20 1979.56 1969.18 1957.83 1949.75 1941.47 1940.68 1942.22 1944.32 1945.93 1948.15 1948.80 1950.68 1952.40 1952.64 1960.53 1973.70 1990.20 2006.98 2022.17 2041.51 2091.53 2110.50 2124.76 2137.27 2141.10 2154.29 2172.12 2192.80 2215.77 2249.22 2277.78 2288.70 2295.21 2299.34 2301.57 2300.52 2295.30 2288.82 2273.84 2259.86 2248.60 2243.66 2243.13 2251.29 2259.63 2270.95 2279.85 2292.60 2306.69 2322.50 2347.45 2348.41 2353.31 2356.98 2362.28 2363 2358.21 2362.37 2356.37 2361.54 2369.90 2381.70 2385.37 2387.98 2391.64 2396.14 2404.28 2403.78 2408.70 2418.83 2421.66 2424.21 2432.95 2441.29 2450.69
2872.30 2871.68 2867.73 2863.22 2853.79 2847.25 2837.66 2808.38 2790.10 2774.28 2755.34 2737.79 2721.66 2707.71 2696.68 2684.77 2674.12 2662.50 2650.78 2640.33 2628.55 2616.19 2596.40 2574.27 2547.40 2531.65 2522.86 2523.16 2518.65 2515.85 2513.48 2510.86 2509.62 2509.98 2510.34 2510.64 2511 2510.89 2511.30 2510.94 2510.68 2514.30 2520.92 2526.23 2528.68 2527.67 2524.29 2522.69 2516.64 2515.84 2513.25 2507.57 2503.43 2499.57 2493.55 2476.14 2465.48 2456.55 2449.62 2441.11 2429.51 2420.16 2407.55 2390.37 2371.71 2355.58 2342.70 2323.30 2311.92 2297.29 2273.94 2255.15 2236.50 2216.43 2202.50 2190.10 2177.54 2162.84 2135 2115.50 2091.66 2071.20 2054.92 2040.58 2025.33 2006.40 1993.93 1983.65 1972.76 1960.41 1949.11 1940.29 1936.27 1936.72 1936.59 1940.21 1940.80 1942.29 1946.50 1945.73 1947.18 1948.16 1955.65 1972.77 1991.11 2009.44 2029.27 2049.40 2075.81 2093.20 2113.48 2142.40 2162.80 2180.83 2199.30 2209.97 2223.28 2245.96 2271.16 2279.50 2285.62 2291.93 2295.40 2294.26 2286.92 2278.88 2261.29 2248.66 2235.83 2232.23 2235.23 2240.15 2247.58 2257.92 2268.96 2281.59 2296.59 2315.32 2319.21 2323.66 2331.97 2335.72 2335.80 2335.81 2338.71 2341.76 2338.69 2339.98 2343.96 2348.85 2361.11 2353.37 2362.59 2369.73 2371.40 2375.67 2394.12 2408.76 2421.21 2424.23 2432.72 2437.64 2439.20
2859.36 2862.35 2857.39 2850.12 2847.10 2840.76 2827.23 2818.96 2783.86 2768.29 2754.57 2734.53 2718.33 2703.90 2690.58 2679.88 2667.89 2657.10 2645.87 2633.80 2625.36 2608.14 2585.30 2558.47 2537.60 2522.48 2518.76 2518.58 2516.29 2514.12 2510.90 2509.50 2509.63 2509.78 2510 2510.16 2510.13 2510.34 2510.91 2511.43 2515.81 2521.40 2526.67 2531.40 2535.75 2536.19 2527.12 2522.39 2520.94 2521.65 2520.33 2514.36 2499.82 2486.37 2479.63 2465.63 2456.22 2447.45 2440.33 2433.35 2426.86 2416.57 2406.46 2392.57 2380.36 2365.82 2347.60 2337.63 2325.34 2311.98 2293.83 2273.41 2250.22 2223.71 2201.29 2182.26 2166.55 2146.56 2120.20 2101.66 2080.65 2063.19 2045.28 2031.43 2017.65 2002.26 1992.10 1978 1965.77 1954.83 1944.80 1934.90 1931.86 1933.27 1932.51 1934.11 1938.59 1939.93 1941.56 1941.96 1942.11 1943.50 1950.68 1967.25 1981.61 2010.16 2049.69 2075.40 2091.30 2111.30 2131.53 2150.97 2179.90 2184.17 2191.17 2203.40 2218.62 2239.67 2253.98 2271.43 2279.15 2283.53 2282.93 2278.86 2267.88 2260.97 2249.47 2233.57 2224.87 2223.32 2228.48 2230.68 2239.58 2247.30 2257.23 2271.10 2281.19 2294.30 2302.70 2308.30 2312.64 2314.55 2316.30 2316.27 2320.96 2320.79 2320.78 2323.32 2324.87 2326.50 2324.66 2333.55 2337.87 2341.95 2351.46 2364.50 2378.69 2396.90 2414.22 2424.80 2430.12 2426.95 2423.51
2847.83 2852.59 2850.59 2841.86 2836.26 2828.31 2815.50 2808.72 2788.77 2767.19 2755.47 2743.80 2718.42 2700.64 2687.61 2674.66 2664.17 2654.11 2642.81 2631.88 2619.28 2595.64 2570.58 2548.58 2532.60 2519.64 2516.43 2516.64 2515.63 2513.23 2511.45 2509.45 2509.48 2509.59 2509.66 2510.45 2514.27 2517.37 2518.82 2519.71 2526.30 2534 2538.65 2541.21 2541.22 2530.12 2528 2526.77 2523.16 2516.47 2513.20 2507.10 2491.96 2480.90 2472.54 2465.50 2454.26 2441.58 2431.10 2423.81 2419.54 2414.63 2405.80 2397.32 2386.56 2371.87 2358.79 2343.45 2327.47 2312.18 2297.36 2278.55 2255.39 2238.77 2213.43 2176.19 2155.40 2142.11 2119.19 2090.20 2070.55 2055.35 2042.76 2024.11 2008.91 1994.78 1982.31 1971.52 1961.57 1950.53 1940.48 1932.88 1929.50 1930.60 1928.50 1931.43 1934.96 1935.80 1936.60 1937.35 1938.50 1938.42 1952.81 1969.50 1986.30 2008.80 2044.55 2097.41 2119.13 2134.68 2149.65 2162.45 2174.19 2172.95 2178.60 2190.60 2199.97 2214.50 2235.62 2263.58 2269.76 2268.46 2265.73 2261.62 2256.88 2250.77 2240.70 2222.22 2218.80 2217.61 2220.57 2227.68 2234.38 2245.80 2254.50 2260.27 2268.90 2276.48 2282.71 2286.43 2290.90 2293.89 2298.33 2299.64 2301.26 2302.30 2304.60 2305.30 2307.65 2307.61 2307.69 2314.77 2325.22 2331.70 2341.33 2353.57 2366.54 2381.87 2403.62 2405.96 2400.89 2400.51 2399.36
2841.95 2845.70 2841.26 2831.37 2825.84 2817.75 2807.80 2798.23 2793.91 2773.10 2758.79 2746.95 2734.13 2716.52 2682.46 2668.58 2656.93 2646.57 2637.10 2625.40 2606.65 2583.60 2560.88 2545.90 2530.40 2517.51 2516.40 2516.10 2516.62 2513.50 2512.37 2509.91 2509.39 2509.42 2511.53 2513.22 2519.50 2522.75 2527.32 2525.95 2531.87 2539.52 2538.37 2535.89 2527.11 2527.69 2525.42 2520.20 2516.44 2506.77 2500.33 2495.39 2484.48 2473.38 2465.50 2458.44 2447.51 2438.86 2431.75 2428.62 2419.66 2408.62 2395.18 2386.84 2385.27 2372.14 2356.86 2338.12 2322.11 2307.86 2293.52 2279.92 2266.20 2247.39 2197.42 2175.50 2152.91 2131.30 2112.68 2091.51 2071.97 2053.51 2036.83 2015.80 1998.80 1986.48 1975.21 1963.48 1952.18 1943.28 1935.30 1927.29 1926 1926.60 1926.50 1928.93 1930.64 1931.71 1932.46 1932.81 1932.90 1941.72 1957.19 1976.92 1994.70 2011.16 2044.77 2084.40 2109.94 2126.53 2141 2150.32 2160.37 2162.60 2168.30 2177.70 2186.89 2197.16 2209.65 2224.39 2247.27 2250.26 2254.90 2248.92 2239.48 2233.41 2224.32 2214.97 2213.51 2214 2217.70 2228.60 2233.30 2235.89 2237.56 2242.77 2254.87 2262.47 2266.45 2268.25 2273.25 2276.37 2279.15 2284.27 2284.34 2285.76 2288.83 2290.36 2291.84 2294.91 2300.30 2307.34 2317.51 2322.60 2330.14 2342.50 2355.30 2377.50 2387.55 2388.88 2386.60 2385.15 2389.56
2836.37 2836.79 2827.17 2818.65 2814.69 2808.28 2799.73 2790.20 2788.31 2780.12 2760.36 2743.70 2730.65 2711.62 2682.90 2663.68 2651.33 2639.31 2631.31 2617.42 2595.97 2576.12 2559.87 2543.21 2527.87 2517.84 2517.19 2515.98 2516.18 2512.64 2509.76 2508.76 2509.12 2509.31 2512.80 2516.65 2520.31 2524.90 2529.44 2530.96 2534.31 2531.93 2526.73 2519 2513.33 2514.84 2514.86 2509.62 2505.32 2501.62 2495.10 2491.79 2476.87 2468.13 2461.19 2454.94 2444.42 2431.51 2427.31 2421.40 2411.98 2403.50 2389.50 2386.43 2378.80 2364.52 2350.46 2333.48 2312.73 2285.40 2274.75 2265.15 2252.80 2241.84 2227.50 2175.94 2147.48 2128.90 2108.27 2088.53 2070.77 2052.97 2034.67 2016.48 1999.60 1984.77 1971.43 1958.71 1946.88 1939.18 1930.20 1922.65 1922.43 1922.30 1921.56 1924.93 1926.73 1927.19 1928.32 1929.59 1929.89 1941.60 1954.13 1976.92 1991.68 2019.26 2036.26 2057 2085.37 2115 2127.16 2134.98 2143.44 2150.55 2158.87 2166.43 2171.55 2183.46 2197.30 2210.10 2230.46 2243.17 2243.35 2236.67 2228.84 2222.44 2214.86 2212.16 2212.77 2213.21 2218.81 2217.57 2217.70 2220.59 2225.65 2233.87 2242.52 2251.27 2256.35 2256.72 2260.20 2263.45 2265.36 2269.12 2268.93 2270.11 2275.65 2276.33 2281.84 2287.87 2293.72 2300.85 2306.91 2314.90 2323.12 2332.27 2345.72 2363.11 2370.19 2373.89 2376.15 2378.88 2377.57
2827.94 2827.17 2817.12 2810.64 2802.12 2798.62 2790.86 2783.96 2772.13 2775.16 2765.30 2733.82 2714.17 2697.42 2679.96 2664.11 2650.10 2634.56 2622.35 2608.75 2591.87 2574.48 2558.37 2543.10 2531.53 2520.83 2517 2515.31 2514.63 2510.65 2508.34 2508.43 2507.87 2507.57 2508.40 2512.30 2512.61 2515.16 2520.76 2524.48 2526.66 2520.30 2513.43 2509.30 2508.87 2511.61 2510.12 2502.68 2494.39 2495.95 2494.67 2488.27 2477.34 2464.31 2453.25 2445.33 2437.61 2428.19 2416.62 2410.27 2404.84 2397.50 2384.96 2377 2367.80 2355.67 2343.47 2327.85 2314.18 2300.26 2264.38 2231.83 2213.37 2207.61 2202.87 2180.25 2157.40 2143.22 2102.56 2082.76 2065.85 2046.73 2029.47 2012.40 1995.67 1979.17 1964.33 1952.11 1942.48 1934.34 1927.93 1922.56 1919.80 1919.83 1917.91 1921.60 1922.53 1923.19 1922.81 1923.77 1924.59 1939.56 1958.71 1971.38 1989.63 2010.81 2042.50 2075.89 2102.51 2115.80 2124.21 2133.95 2140.55 2146.65 2150.20 2154.20 2163.15 2175.13 2189.54 2212.20 2230.72 2234.22 2227.54 2223.77 2219.22 2219.23 2212.19 2211.84 2214.37 2210.73 2209.37 2208.93 2210.95 2216.35 2221.78 2228.36 2233.77 2239.67 2245.73 2250.19 2251.94 2256.10 2253.62 2255.79 2254.46 2261.12 2266.11 2269.62 2275.87 2282.52 2288.28 2294.85 2302.14 2312.47 2320.50 2327.40 2336.75 2349.97 2357.10 2362.34 2364.29 2363.87 2365.81
2824.91 2819.22 2810.47 2802.40 2794.15 2788.88 2783.80 2775.37 2764.33 2755.33 2751.66 2725.30 2706.67 2692.46 2679.67 2668.73 2656.77 2641.54 2624.10 2604.20 2589.32 2576.10 2563.11 2548.85 2535.12 2520.61 2514.55 2510.18 2509.40 2508.59 2510.79 2507.84 2500.61 2501.78 2501.27 2502.46 2502.96 2506.43 2511.30 2517.63 2510.11 2506.12 2504.22 2500.86 2503.60 2504.90 2501.12 2489.57 2485.85 2487.85 2486.62 2480.28 2469.50 2454.71 2442.57 2436 2431.51 2424.10 2407.51 2398.19 2393.54 2390.62 2383.22 2374.95 2362.58 2349.61 2335.61 2321.10 2305.97 2294.15 2278.75 2257.91 2207.97 2180.80 2166.68 2159.95 2156.40 2125.73 2092.57 2072.71 2056.41 2040.82 2022.41 2005.53 1990.20 1975.79 1961.38 1947.61 1937.20 1929.68 1922.10 1916.51 1915.27 1917.60 1915.94 1917.56 1917.31 1919.50 1919.40 1919.25 1922.40 1936.76 1951.65 1970.43 1988.96 2007.30 2032.33 2056.14 2075.16 2102.77 2110.52 2125.29 2130.31 2133.72 2141.37 2145.33 2156.36 2168.10 2190.35 2210.34 2219.42 2217.20 2209.85 2204.10 2202.50 2203.46 2202.43 2203.59 2203.27 2203.65 2205.84 2208.63 2212.45 2219.60 2226.98 2232.87 2233.40 2235.19 2238.30 2239.48 2241.50 2243.34 2247.15 2250.43 2253.79 2258.45 2262.12 2266.42 2271.20 2277.23 2283.12 2289.54 2296.65 2305.17 2312.14 2320.41 2329.52 2338.34 2348.19 2354.60 2356.79 2357.94 2357.42
2821.90 2811.45 2801.40 2794.84 2786.13 2779.36 2774.23 2767.66 2759.20 2745.65 2737.14 2722.86 2701.89 2688.70 2678.10 2667.31 2655.55 2641.34 2624.77 2610.18 2595.71 2582.60 2573.81 2560.64 2539.27 2519.82 2506.40 2504.33 2507.48 2506.98 2502.88 2499.40 2491.44 2489.20 2488.61 2491.63 2492.62 2498.16 2503.13 2500.53 2496.69 2494.58 2492.37 2489.76 2490.54 2492.60 2487.75 2485.20 2481.47 2479.45 2477.28 2470.12 2460.28 2447.60 2436.92 2430.90 2427.15 2416.39 2402.89 2393.54 2388.51 2383.90 2377 2371.12 2358.85 2345.67 2331.19 2316 2303.20 2288.73 2277.51 2249.19 2202.78 2186.26 2164.37 2140.16 2121.34 2105.90 2088.50 2070.30 2053.46 2035.33 2018.81 2001.54 1984.60 1969.95 1956.45 1943.88 1932.56 1923.30 1917.53 1911.86 1911.68 1912.40 1914.42 1914 1913.10 1914.98 1915.35 1916.60 1920.77 1934.42 1948.59 1966.38 1982.82 2002.66 2026.64 2044.18 2058.92 2074.80 2092.64 2109.13 2116.52 2120.98 2130.76 2140.65 2153.17 2168.20 2188.57 2199.62 2197.77 2199.79 2193.50 2193.34 2192.85 2194.81 2198.46 2202.73 2202.70 2205.78 2207.92 2213.50 2217.20 2221.55 2224.86 2229.16 2232.25 2234.73 2238.52 2241.67 2244.12 2247.58 2250.17 2252.48 2255.48 2258.61 2261.83 2265.92 2270.88 2275.64 2283.50 2289.70 2295.23 2301.87 2309.30 2316.77 2323.71 2333.25 2340.86 2347.91 2351.65 2352.87 2353.43
2811.27 2801.46 2792.90 2784.12 2776.29 2770.36 2765.80 2757.90 2755.58 2740.97 2729.70 2713.86 2700.13 2690.34 2678.77 2666.61 2652.85 2639.81 2626.57 2614.95 2605.17 2593.10 2581.93 2561.12 2533.33 2510.50 2499.73 2494.64 2498.73 2500.50 2496 2492.52 2485.39 2478.62 2478.40 2479.20 2483.70 2483.57 2486.96 2486.27 2485.20 2483.65 2480.29 2477.52 2478.87 2481.78 2482.96 2481.26 2478.69 2475.60 2468.67 2463.45 2451.47 2439.58 2427.73 2423.26 2421.81 2412.20 2398.37 2387.38 2380.51 2376.48 2372.50 2367.94 2352.60 2338.12 2323.55 2308.69 2295.41 2281.54 2271.39 2252.12 2224.80 2217.68 2193.11 2159.38 2129.93 2107.30 2084.89 2067.60 2049.77 2032.77 2016.70 2002.13 1986.18 1970.83 1956.82 1943.10 1931.40 1921.10 1912.60 1908.60 1908.60 1909.21 1911.20 1910.38 1909.20 1911.43 1912.88 1914.61 1922.14 1930.68 1944.50 1960.44 1980.21 1998.28 2017.18 2033.18 2052.20 2067.88 2087.44 2098.29 2107.38 2118.75 2130.70 2144.78 2156.10 2167.76 2177.15 2180.67 2182.30 2182.55 2190.19 2191.30 2187.53 2196.39 2203.53 2208.70 2211.97 2213.96 2217.70 2221.81 2224.81 2226.54 2231.69 2234.30 2237.21 2240.19 2243.11 2246.13 2248.83 2252.10 2253.33 2255.79 2258.28 2260.98 2264.17 2268.96 2274.33 2279.39 2284.43 2290.64 2296.23 2302.73 2311.50 2316.56 2323.69 2330.36 2336.27 2339.59 2342.75 2344.53 2345.97
2799.51 2791.63 2784.60 2774.47 2766.70 2762.40 2756.92 2748.23 2744.13 2732.89 2722.42 2708.65 2695.80 2688.30 2679.59 2668.26 2659.25 2648.84 2633.40 2618.62 2604.25 2588.64 2581.13 2560.55 2535.37 2505.77 2493.52 2492.12 2491.51 2492.72 2490.62 2485.44 2475.47 2468.50 2465.59 2467.59 2473.10 2471.67 2469.47 2469.23 2469.63 2467.85 2466.75 2466.56 2467.70 2468.46 2470.87 2470.12 2466.52 2463.23 2460.28 2452.93 2441.75 2434.31 2423.50 2416.20 2412.76 2406.40 2395.78 2380.21 2374.72 2369 2364 2359.13 2345.47 2331.28 2315.34 2301.90 2286.29 2274.51 2265.36 2254.98 2238.87 2215.76 2190.57 2166.69 2136.34 2109.75 2081.89 2057.41 2042.90 2028.80 2014.56 1998.69 1983.33 1969.70 1955.32 1942.60 1928.19 1917.10 1909.42 1906.40 1905.16 1907.68 1908.56 1905.93 1906.17 1908.21 1913.50 1915.32 1920.60 1934.76 1946.51 1961.60 1978.89 1995.80 2013.79 2034.90 2045.40 2062.16 2077.27 2086.96 2104.90 2121.77 2135.48 2151.40 2166.39 2174.13 2177.31 2174.43 2172.30 2171.58 2174.59 2177.42 2183.64 2197.84 2205.50 2213.44 2217.87 2223.58 2229.62 2231.86 2232.96 2233.45 2237.37 2240.90 2242.69 2246.90 2251.20 2253.78 2256.90 2259.71 2260.20 2261.41 2264.73 2266.94 2269.84 2272.64 2277.65 2282.14 2288.62 2295.10 2300.87 2306.57 2312.29 2316.96 2321.79 2325.14 2329.63 2333.20 2335.37 2336.39 2337.84
2791.15 2781.73 2777.34 2768.90 2762.56 2757.50 2750.70 2741.64 2737.39 2726.15 2716.28 2706.67 2696.54 2689.93 2677.11 2670.70 2659.56 2649.18 2641.20 2608.50 2594.56 2579.46 2573.59 2561.52 2533.19 2510.87 2496.40 2490.96 2486.73 2485.86 2486.32 2476.37 2466.95 2459.30 2456.85 2458.98 2458.73 2457.15 2455.64 2453.97 2452.87 2453.20 2454.55 2452.50 2451.93 2453.30 2453.63 2453.90 2456.66 2454.76 2451.97 2446.80 2435.43 2430.17 2418.96 2410.27 2405.62 2400.15 2388.86 2377.82 2368.98 2364.45 2358.34 2351.44 2338.29 2323.81 2308.32 2293.70 2279.41 2267.56 2257.36 2244.20 2227.37 2210.45 2181.90 2151.43 2129.63 2106.15 2080.46 2051.20 2030.43 2016.81 2005.58 1992.56 1979.80 1965.81 1951.39 1936.93 1924.21 1913.26 1905.54 1903.91 1902.66 1904.33 1905.76 1902.42 1904.97 1905.81 1909.60 1912.58 1918.54 1933.23 1942.68 1957.65 1974.96 1994.11 2011.86 2028.83 2042.69 2057.81 2073.71 2091.52 2110.44 2131.90 2144.96 2153.69 2158.97 2164.11 2165.14 2161.23 2161.14 2164.48 2167.46 2175.91 2184.63 2195.38 2210.21 2219.36 2227.61 2240.62 2242.78 2246.45 2246.12 2244.42 2245.26 2248.88 2253.60 2258.12 2260.50 2262.28 2265.63 2266.72 2266.33 2268.30 2269.61 2271.17 2274.51 2276.82 2282.20 2288.67 2294.21 2299.35 2305.20 2310.58 2314.30 2316.55 2319.79 2321.61 2323.46 2324.69 2326.27 2329.37 2333.28
2779.91 2773.89 2769.12 2764.20 2756.40 2752.38 2744.20 2740.18 2732.21 2720.65 2713.46 2703.93 2695.93 2681.78 2674.57 2666.21 2655.45 2647.18 2624.87 2602.37 2587.77 2575.46 2566.64 2559.84 2533.10 2514.51 2497.71 2490.76 2483.23 2475.41 2473.48 2464.76 2455.17 2452.21 2452.87 2452.93 2448.13 2446.33 2444.61 2443.26 2442.81 2442.91 2442.61 2442.78 2443.45 2444.62 2446.10 2446.40 2445.32 2448.13 2449.47 2441.64 2430.15 2423.91 2415.98 2408.77 2398.70 2391.36 2379.15 2368.26 2361.53 2357.81 2354.30 2342.62 2330.71 2315.98 2302.17 2288.12 2271.32 2257.88 2247.30 2230.52 2213.37 2189.81 2168.76 2146.67 2124.60 2103.36 2070.76 2040.33 2021.66 2005.34 1992.39 1981.98 1969.20 1956.85 1945.42 1932.25 1921.52 1909.50 1902.26 1900.33 1900.60 1901.93 1902.97 1900.33 1902.70 1903.69 1905.51 1913.17 1922.68 1930.33 1940.82 1955.64 1973.95 1993.38 2005.38 2015.65 2032.20 2048.27 2067.80 2087.91 2105.22 2119.90 2132.31 2141.12 2146.94 2150.76 2155.69 2159.27 2163.57 2165.27 2169.33 2175.72 2184.42 2197.37 2211.95 2224.51 2234.87 2247.63 2253.82 2254.35 2252.92 2252.60 2253.50 2256.69 2259.83 2263.79 2266.14 2268.76 2270.53 2270.50 2268.93 2267.73 2267.73 2268.80 2269.65 2274.27 2285.83 2299.80 2302.89 2311.28 2315.62 2313.33 2313.30 2310.62 2310.48 2311.78 2315.67 2319.20 2325.10 2329.37 2333.10
2768.17 2764.25 2761.72 2759.10 2751.86 2745.35 2737.41 2730.20 2719.97 2712.63 2705.32 2698.15 2689.79 2682.79 2672.47 2659.15 2648.54 2636.76 2621.70 2600.34 2584.52 2573.22 2564.78 2556.43 2536.76 2513.62 2495.91 2483.53 2475.43 2468.42 2463.31 2454.41 2452.48 2453.62 2451.70 2448.63 2446.88 2445.60 2443.37 2443.40 2442.88 2443.12 2442.98 2443.31 2442.43 2442.90 2442.78 2441.60 2439.62 2440.30 2436.93 2431.69 2422.15 2415.52 2409.38 2402.50 2392.43 2380.53 2369.10 2359.18 2352.20 2345.29 2341 2334.80 2323.65 2308.38 2292.61 2278.70 2263.87 2248.26 2236.15 2218.30 2199 2178 2156.77 2132.60 2114.85 2095.51 2071.70 2033.20 2013.18 1996.73 1981.55 1968.80 1959.81 1947.58 1936.29 1926.16 1914.97 1905.68 1900.84 1899.72 1897.93 1898.46 1899.30 1898.57 1898.31 1900.89 1908 1916.18 1924.39 1934.53 1945.83 1956.39 1968.77 1981.16 1995.30 2011.30 2030.40 2053.43 2073.48 2091.20 2107.40 2124.22 2137.18 2148.80 2152.70 2155.31 2161.80 2165.97 2169.80 2173.13 2175.40 2180.78 2183.83 2190.97 2204.23 2218.46 2238.42 2247.12 2251.13 2255.93 2255.61 2254.81 2254.93 2255.57 2257.61 2260.93 2264.11 2265.86 2267 2266.71 2266.36 2267.57 2267.11 2267.90 2267.14 2268.39 2275.40 2283.37 2286.36 2290.32 2291.97 2296.26 2295.36 2296.77 2297.69 2299.45 2300.88 2303.21 2307.62 2312.48 2320.29
2760.58 2755.30 2754.18 2750.78 2746.58 2737.42 2730.26 2719.68 2710.10 2698.81 2692.26 2687.71 2683.52 2675.85 2667.47 2652.52 2641.78 2629.98 2622.65 2601.92 2588.31 2573.61 2564.84 2557.21 2543.90 2516.28 2496.53 2480.46 2470.97 2464.12 2459.57 2459.19 2461.43 2459.92 2457.23 2455.41 2453.62 2451.33 2447.62 2445.61 2444.64 2443.59 2442.36 2440.80 2435.66 2439.50 2437.40 2436.83 2431.40 2430.23 2427.72 2422.88 2417.73 2412.31 2404.39 2396.70 2385.36 2373.12 2360.51 2353.25 2346.27 2338.11 2332.13 2324.11 2312.89 2300.59 2283.79 2268.84 2252.21 2235.39 2221.84 2209.51 2193.46 2172.76 2151.34 2130.56 2094.65 2077.82 2049.80 2026.21 2007.44 1989.72 1972.94 1958.68 1946.29 1937.70 1927.55 1918.67 1909.26 1902.53 1897.68 1896.63 1894.54 1895.80 1895.75 1895.82 1896.85 1900.85 1909.86 1916.91 1923.68 1933.35 1944.92 1955.79 1967.13 1983.75 1999.26 2013.40 2029.59 2047.67 2067.22 2088.56 2114.13 2132.11 2143.13 2154.26 2163.61 2163.37 2163.62 2165.85 2168.83 2172.42 2172.51 2174.80 2180.30 2189.62 2201.37 2216.19 2233.31 2244.84 2253.12 2254.37 2254.82 2254.82 2255.22 2255.96 2257.12 2257.80 2259.46 2263.60 2265.14 2267.37 2267.89 2268.14 2267.40 2269.82 2268.33 2268.92 2271.58 2274.98 2278.43 2281.91 2284.40 2286.12 2285.31 2285.71 2287.45 2288.20 2289.40 2291.16 2293.44 2301.20 2309.46
2754.57 2747.57 2742.28 2738.27 2734.93 2726.46 2716.28 2709.43 2698.40 2685.75 2677.50 2677.38 2672.21 2665.87 2658.84 2645.94 2638.10 2626.54 2613.47 2602.52 2590.86 2578.16 2568.26 2556.78 2542.86 2526.42 2499.72 2487.50 2477.17 2472.23 2468.27 2464.87 2460.22 2459.76 2457.91 2454.67 2451.43 2447.78 2445.88 2442.69 2441.45 2437.34 2433.57 2430.64 2425.85 2422 2420.53 2416.37 2413.57 2411.95 2411.77 2413.63 2410.50 2404 2398.50 2390.14 2377.44 2369.62 2358.14 2348.77 2340.55 2331.56 2322.93 2314.87 2300.16 2288.19 2276.97 2262.12 2248.14 2235.90 2217.26 2199.80 2180.81 2165.15 2143.21 2113.37 2077.41 2062.45 2046.11 2022.60 2004.42 1986.60 1969.56 1952.79 1941.10 1929.19 1919.80 1912.72 1907.27 1899.56 1895.79 1894.10 1893.50 1892.63 1893.45 1892.27 1894.22 1902.80 1908.71 1914.78 1924.78 1933.14 1946.40 1954.98 1966.10 1978.84 1995.32 2013.96 2039.63 2061.47 2073.50 2094.58 2116.27 2130.58 2139.73 2156.93 2163.26 2163.56 2163.75 2167.87 2169.17 2175.20 2172.72 2171.94 2176.67 2184.44 2196.66 2210.65 2221.57 2234.28 2241.63 2247.12 2250.13 2254.66 2258.70 2256.20 2257.30 2260.60 2265.76 2277.13 2281.44 2281.86 2281.94 2276.17 2272.15 2271.69 2269.93 2270.15 2272.10 2276.70 2276.90 2278.47 2279.77 2281.30 2282.62 2284.11 2284.80 2283.55 2283.87 2286.10 2285.68 2293.79 2297.83
2744.92 2740.84 2735.39 2728.56 2722.29 2713.81 2702.88 2695.40 2684.85 2674.17 2663.30 2656.71 2651.33 2648.53 2644.12 2638.23 2630.65 2622.83 2610.55 2599.17 2587.12 2573.34 2561.93 2550.65 2539.22 2520.70 2506.37 2494.18 2485.68 2478.11 2470.52 2464.61 2457.45 2454.58 2453.25 2451.92 2445.14 2439.65 2437.10 2433.96 2431.94 2427.97 2424.60 2414.45 2411.52 2403.26 2404.73 2403.66 2402.20 2399.12 2399.86 2400.65 2402.35 2398.96 2389.61 2381.51 2369.94 2363.46 2353.79 2344.36 2332.93 2322.29 2312.45 2304.85 2291.54 2278.55 2268.70 2254.15 2240.50 2229.41 2215.84 2199.15 2186.94 2173.26 2156.60 2125.77 2083 2060.88 2034.58 2012.59 1998.65 1984.66 1968.30 1952.19 1939.60 1926.68 1917.86 1907.93 1902.57 1897.77 1893.32 1892.56 1891.31 1889.60 1890.31 1890.18 1891.22 1900.30 1907.95 1916.96 1925.30 1932.52 1943.69 1957.34 1969.93 1982.59 1996.69 2020.97 2044.79 2068.62 2084.78 2101.70 2113.25 2120.96 2131.64 2143.25 2153.75 2162.40 2165.58 2168.65 2169.42 2169.69 2171.90 2172.43 2175.71 2184.37 2196.33 2211.13 2226.13 2232.27 2238.12 2243.52 2251.40 2259.87 2262.97 2261.17 2262.43 2268.51 2278.50 2288.85 2299.60 2301.67 2301.45 2293.89 2283.94 2278.39 2275.28 2273.66 2275.95 2280.87 2282.88 2283.53 2284.98 2286.95 2287.32 2285.37 2284.52 2285 2287.80 2286.92 2288.92 2291.68 2301.90
2739.57 2733.81 2726.25 2718.10 2710.26 2700.57 2692.60 2681.10 2673.39 2661.19 2649.85 2642.46 2637.43 2636.21 2630.12 2623.83 2618.75 2613.66 2605.29 2591.62 2579.42 2569.21 2557.30 2547.16 2538.60 2527.86 2512.16 2502.87 2491.50 2479.37 2473.18 2466.12 2460.20 2454.33 2449.83 2444.92 2440.70 2433.70 2428.63 2422.95 2416.43 2410.50 2406.16 2399.67 2395.73 2392.32 2388.60 2386.73 2387.27 2386.15 2387.44 2384.48 2386.60 2384.60 2375.85 2370.73 2362.57 2352.68 2344.48 2336.27 2323.80 2313.76 2305.94 2298.95 2285.47 2268.73 2255.26 2245.30 2230.89 2218.39 2210.37 2195.56 2176.79 2157.61 2136.63 2110.40 2096.73 2071.54 2031.71 2014.65 1993.56 1974.42 1963.56 1949.47 1936.88 1925.72 1914.41 1905.41 1899.66 1895.91 1892.85 1890.34 1889.26 1886.95 1888.57 1887 1890.39 1900.40 1906.70 1915.50 1924.55 1934.15 1944.79 1959.58 1973.18 1990.10 2005.58 2020.23 2037.20 2058.26 2080.22 2104.33 2113.11 2116.68 2123.95 2134.47 2145.46 2158.78 2163.88 2166.57 2169.32 2171.62 2170.67 2172.40 2174.12 2182.54 2195.61 2215.17 2233.22 2245.71 2250.20 2253.65 2264.39 2272.25 2281.64 2276.39 2272.29 2272.21 2281.10 2291.45 2312.63 2319.40 2315.40 2307.20 2295.78 2289.63 2285.87 2284.78 2283.38 2282.77 2285.60 2286.96 2289.89 2291.54 2291.53 2290.12 2289.14 2288.80 2288.84 2289.62 2290.52 2294.95 2309.79
2734.28 2729.43 2717.90 2711.12 2704.50 2691.87 2679.97 2670.47 2661.29 2649.46 2637.98 2630.27 2627.77 2626.65 2620.11 2616.39 2610.50 2605.17 2595.46 2586.52 2578.20 2568.61 2554.70 2545.81 2535.62 2524.34 2514.40 2504.66 2493.60 2483.40 2475.60 2465.58 2456.86 2450.87 2445.39 2437.36 2428.98 2421.79 2415.12 2408.61 2400.21 2394.78 2385.45 2378.44 2374.30 2370.17 2369.58 2370.15 2369.83 2370.50 2370.63 2370.40 2368.64 2367.65 2364.12 2359.86 2354.68 2351.78 2344.25 2335.44 2320.70 2312.69 2303.70 2294.45 2280.61 2263.55 2248.85 2232.58 2220.44 2210.75 2202.13 2187.97 2173.10 2154.50 2122.73 2095.93 2074.79 2067.32 2027.66 2004.42 1987.10 1971.77 1956.13 1940.57 1933.63 1921.92 1912.53 1903.93 1896.48 1892.57 1890.28 1889.27 1888.32 1884.72 1883.78 1885.30 1893.85 1899.81 1908.58 1918.10 1925.85 1936.10 1952.13 1970.39 1986.70 1998.94 2011.30 2026.96 2041.25 2056.52 2075.10 2088.80 2099.88 2109.54 2119.64 2131.10 2142.34 2160.30 2165.20 2166.45 2165.10 2163.43 2162.39 2162.36 2167.35 2178.89 2190.89 2198.51 2218.90 2245.44 2254.61 2263.88 2276.77 2289.70 2299.81 2296.65 2286.63 2288.63 2287.45 2290.22 2299.57 2303.34 2304.73 2303.73 2299.60 2294.88 2291.13 2288.55 2287.90 2286.20 2286.54 2287.90 2287.62 2288.22 2288.33 2288.37 2288.26 2288.46 2289.30 2290.30 2290.97 2297.18 2311.37
2727.41 2723.28 2717.69 2705.87 2694.13 2685.13 2673.79 2663.60 2649.33 2639.67 2628.84 2622.46 2618.75 2610.89 2607.42 2601.98 2602.25 2598.89 2594.50 2587.80 2580.41 2566.30 2554.67 2543.30 2535.72 2527.38 2515.26 2505.26 2495.39 2485.10 2474.14 2463.17 2454.60 2446.42 2436.21 2425.88 2419.13 2411.66 2401.78 2393.39 2384.17 2378.32 2376.16 2369.90 2362.35 2359.71 2364.64 2364.16 2363.30 2363.73 2363.33 2366.80 2366.72 2367.34 2365.78 2361.86 2359.53 2356.39 2349.42 2336.39 2322.47 2309.40 2300.66 2288.90 2272.62 2262.59 2248.52 2232.27 2215.89 2200.43 2186.93 2179.64 2157.10 2142.39 2112.94 2087.47 2063.27 2042.81 2021.38 2001.21 1983.80 1964.85 1950.11 1936.22 1924.15 1917.68 1906.78 1900.67 1894.43 1890.25 1887.25 1886.65 1886.57 1886.28 1880.44 1887.38 1896.19 1908.31 1916.10 1921.30 1926.70 1938.65 1962.43 1977.60 1991.71 2011.50 2029.81 2039.47 2052.60 2065.42 2074.76 2084.93 2094.33 2102.81 2115.21 2136.50 2149.50 2155.10 2156.98 2157.21 2156.37 2156.37 2158.26 2162.71 2167.86 2177.62 2189.61 2196.37 2204.67 2219.41 2244.41 2264.98 2290 2303.13 2308.82 2311.18 2313.70 2309.12 2314.32 2310.45 2306.63 2306.70 2305.50 2299.90 2295.31 2291.42 2290.30 2289.19 2288.31 2286.81 2286.25 2287.10 2287.20 2287.51 2288.11 2288.44 2289.40 2289.29 2289.98 2292.96 2297.13 2300.81 2310.50
2719.30 2715.79 2707.35 2697.95 2686.70 2672.63 2663.59 2653.90 2642.33 2633.15 2626.13 2616.90 2611.80 2606.20 2602.60 2598.32 2595.84 2593.58 2589.31 2583.48 2575.87 2564.13 2552.60 2541.12 2532.62 2524.27 2508.65 2500.70 2492.21 2482.58 2472.62 2459.60 2446.89 2435.76 2426.38 2417.71 2412.77 2404.68 2395.21 2387.44 2381.22 2376.60 2369.31 2361.90 2355.46 2356.95 2357.98 2358.78 2359.90 2360.90 2360.62 2361.51 2360.50 2359.37 2359.16 2352.64 2349.73 2349.30 2343.20 2330.22 2323 2312.50 2301.81 2287.76 2270.50 2254.39 2238.52 2230.37 2215.29 2201.42 2188.56 2172.71 2155.60 2116.52 2093 2072.12 2055.56 2037.70 2017.81 2001.50 1982.71 1962.70 1945.41 1933.32 1922.90 1910.46 1903.65 1896.71 1891.35 1887.70 1885.70 1884.50 1884.16 1882.28 1878.52 1885.50 1896.69 1904.32 1912.29 1918.70 1926.14 1937.57 1952.43 1971.61 1985.30 2008.60 2036.93 2059.26 2073.92 2082.80 2086.29 2086.84 2090.87 2102.20 2112.90 2131.60 2139.14 2147.40 2152.87 2151.50 2153.15 2155.75 2160.77 2165.94 2167.81 2174.31 2181.80 2190.53 2199.66 2215.10 2230.89 2250.84 2272.18 2310.44 2316.91 2319.11 2322.10 2320.50 2318.12 2318.90 2316.55 2314.83 2313.20 2305.41 2297.13 2292.82 2291.50 2289.89 2289.34 2289.80 2292.90 2293.41 2294.80 2295.37 2299.10 2296.86 2296.73 2295.20 2295.54 2295.93 2299.58 2304.95 2312.70
2710.52 2702.91 2696.69 2688.54 2677.21 2669.83 2657.92 2648.38 2638.12 2629.92 2619.63 2614.30 2609.10 2604.12 2599.64 2595.37 2594.63 2587.87 2579.54 2572.20 2566.68 2555.44 2543.89 2534.98 2526.90 2518.37 2508.25 2499.71 2489.60 2479.76 2465.89 2454.39 2442.31 2430.33 2418.73 2410.20 2404.20 2397.83 2393.76 2389.68 2379.42 2369.40 2360.93 2358.10 2350.55 2349.62 2350.12 2350.31 2350.38 2353.72 2355.90 2352.37 2351.22 2351.67 2349.86 2342.15 2337.70 2337.10 2333.51 2323.78 2316.58 2307.75 2297.40 2284.30 2268.10 2248.90 2229.41 2218.94 2206.91 2193.80 2178.95 2163.23 2147.51 2110.87 2074.40 2050.37 2041.42 2029.84 2012.90 1994.89 1977.25 1960.78 1944.15 1928.71 1916.25 1906.91 1899.68 1893.80 1889.61 1885.31 1882.60 1882.17 1881.38 1879.57 1876.98 1881.68 1891.92 1901.56 1909.79 1918.50 1928.58 1937.76 1949.79 1963.39 1979.48 1998.51 2026.93 2050.94 2071.56 2079.73 2079.76 2082.59 2089.39 2100.75 2111.92 2124.43 2130.45 2144.80 2150.44 2154.80 2158.70 2162.41 2164.90 2169.40 2175.31 2179.87 2184.81 2194.51 2201.40 2214.77 2231.21 2249.41 2276.66 2306.41 2317.89 2323.11 2321.52 2325.12 2326.29 2324.39 2313.86 2309.18 2306.47 2302 2296.56 2294.18 2294.30 2293.90 2293.26 2294.85 2298.38 2300.46 2301.50 2302.22 2303.17 2304.20 2305.80 2305.73 2306.39 2306.70 2307.37 2312.97 2318.48
2698.70 2693.80 2686.33 2677.33 2672.15 2661.25 2649.14 2641.59 2635.53 2627.76 2618.60 2610.80 2606.47 2602.16 2599.83 2596.31 2591.71 2582.72 2573 2563.65 2553.77 2543.22 2535.30 2525.68 2517.95 2511.11 2503.10 2494.48 2485.35 2473.73 2461.38 2449.38 2440.90 2428.37 2417.53 2410.96 2408 2402.61 2393.11 2383.89 2374.39 2364.77 2357.26 2353.12 2348.23 2345.77 2344.60 2345.50 2344.38 2345.12 2346.85 2346.91 2345.30 2344.88 2340.59 2330.12 2325.14 2321.93 2322.72 2317.80 2307.20 2292.80 2282.70 2271.37 2261.60 2244.65 2223.95 2206.71 2189.88 2182.62 2170 2153.86 2120.88 2097.68 2073.10 2053.52 2031.52 2014.10 1999.52 1984.69 1967.43 1953.21 1939.85 1924.20 1912.50 1904.85 1893.65 1890.92 1885.16 1882.76 1878.25 1878.30 1875.31 1876.72 1876.77 1877.96 1890.31 1898.34 1909.43 1919.17 1926.41 1936.29 1951.34 1963.93 1980.31 1996.10 2020.43 2035.70 2052.64 2065.45 2071.19 2076.97 2088.62 2111.79 2118.80 2117.64 2125.60 2134.97 2144.20 2157.38 2166.87 2173.54 2173.72 2175.81 2180.32 2189.94 2193.42 2199.22 2208.20 2229.61 2243.10 2251.53 2267.91 2284.65 2295.69 2303.42 2305.62 2304.41 2299.33 2295.12 2294.84 2291.77 2290.17 2289.71 2288.41 2289.38 2290.63 2292.70 2294.43 2298.44 2298.67 2301.23 2304.47 2306.62 2307.70 2309.33 2312.30 2315.29 2317.19 2316.48 2318.61 2320.82 2327.56
2689.18 2681.48 2675.37 2668.89 2661.54 2652.89 2647.40 2641.82 2636.94 2631.65 2627.88 2617.82 2607.67 2603.12 2599.23 2595.47 2592.55 2585.41 2569.67 2562.89 2553.71 2545.72 2534.85 2525.86 2514.60 2505.19 2493.68 2483.40 2474.47 2463.59 2455.17 2445.23 2434.89 2425.16 2417.29 2409.50 2402.12 2393.44 2384.90 2369.79 2356.29 2348.33 2345.88 2347.50 2344.11 2339.34 2338.62 2338.47 2336.75 2336.83 2335.42 2333.32 2332.21 2333.57 2334.34 2324.64 2315.32 2306.84 2305.85 2301.60 2292.14 2283.78 2267.30 2254.94 2246.56 2236.20 2218.62 2202.25 2187.87 2169.79 2154.54 2131.37 2134.63 2092.60 2072.93 2055.10 2035.23 2016.59 1996.80 1976.34 1959.73 1945.27 1934.50 1920.75 1910.91 1900.17 1890.15 1884.20 1882.56 1877.48 1874.68 1872.95 1873.93 1872.50 1874.90 1881.61 1890.88 1902.61 1911.28 1918.80 1927.76 1940.81 1954.60 1968.90 1982.15 1996.80 2011.26 2027.71 2043.64 2054.89 2062.11 2071.23 2084.18 2094.61 2102.96 2111.56 2123.71 2133.73 2145.60 2153.68 2167.71 2181.97 2187.32 2190.70 2189.20 2198.28 2208.40 2213.62 2218.27 2235.98 2252.20 2257.70 2265.93 2275.11 2279.29 2283.66 2284.50 2284.37 2281.84 2278.98 2277.91 2277.37 2279.60 2281.55 2281.44 2281.55 2285.85 2289.79 2292.33 2295.20 2297.91 2301.91 2306.69 2313.62 2318.20 2319.60 2321.20 2324.27 2329.79 2333.63 2328.29 2329.92 2335.14
2678.68 2671.61 2668.61 2661.14 2656.40 2649.23 2647.15 2642.58 2637.90 2628.43 2620.98 2614.41 2610.90 2601.84 2597.26 2592.19 2585.78 2577.86 2565.70 2554.32 2540.78 2529.85 2523.11 2518.51 2513.10 2505.98 2497.93 2478.12 2464.68 2455.60 2444.89 2433.22 2423.53 2415.15 2406.59 2399.36 2389.60 2380.66 2368.77 2356 2347.54 2342.65 2340.92 2339.77 2334.35 2332.62 2329.40 2329.42 2329.22 2334.13 2331.96 2331.50 2329.39 2325.92 2323.32 2310.63 2302.88 2298.23 2290.92 2286.96 2278.57 2267.68 2258.35 2244.56 2229.85 2221.20 2209.90 2197.84 2181.52 2164.25 2152.12 2107.32 2100.48 2081.45 2056.15 2042.47 2025.18 2008.79 1992.27 1974.13 1958.47 1942.13 1928.97 1917.38 1909.18 1899.92 1891.64 1883.41 1876.75 1874.39 1873.94 1871.21 1870.32 1871.92 1871.46 1882.38 1892.79 1902.55 1910.20 1917.56 1926.26 1938.50 1952.59 1971.98 1988.80 1997.36 2010.39 2023.38 2036.93 2047.93 2059.59 2071.10 2079.50 2089.75 2099.10 2110.92 2122.52 2138.19 2151.68 2162.87 2173.10 2184.22 2192.68 2198.88 2203.50 2206.70 2211.26 2217.76 2224.68 2236.96 2252.53 2258.17 2265.78 2270.70 2270.39 2271.57 2272.10 2270.25 2268.95 2277.14 2280.42 2279.62 2272.30 2272.47 2274.96 2277.56 2283 2287.98 2291.88 2296.57 2301.12 2305.31 2309.60 2313.65 2319.93 2326.30 2332.55 2337.96 2340.64 2341.38 2341 2341.50 2346.34
2672.30 2668.17 2663.45 2657.57 2649.67 2643.35 2637.80 2631.40 2630.19 2618.43 2611.36 2608.32 2599.66 2592.14 2589.35 2584.90 2576.40 2568.60 2560.70 2549.26 2541.25 2531.70 2524.41 2519.57 2515.38 2508.10 2499.41 2484.75 2472.33 2463.40 2457.37 2448.10 2434.38 2426.28 2412.77 2391.72 2377.81 2364.33 2353.29 2343.29 2338.45 2334.10 2332.83 2332.42 2333.22 2328.71 2325.66 2324.35 2322.70 2323.39 2323.13 2320.20 2315.41 2311.50 2301.26 2295.57 2290.84 2287.97 2283.13 2272.81 2263.36 2253.45 2244.75 2232.72 2222.68 2205.27 2195.92 2186.52 2173.17 2154.40 2136.37 2106.37 2076.62 2062.23 2041.93 2028.10 2011.96 1997.81 1982.66 1964.52 1946.26 1933.54 1919.70 1911.63 1903.46 1897.40 1891.31 1883.16 1876.42 1871.53 1871.20 1870.80 1868.47 1870.27 1868.42 1885.35 1894.72 1900.28 1903.66 1912.55 1919.66 1931.63 1943.81 1961.66 1979.70 1993.83 2008.52 2018.54 2033.25 2046.60 2061.29 2072.53 2080.39 2088.95 2100.91 2114.26 2125.58 2141.53 2159.63 2170 2183.54 2196.29 2204.41 2212.40 2215.35 2218.62 2221.20 2224.93 2230.60 2238.86 2256.34 2264.60 2268.43 2268.65 2267.71 2265.54 2262.26 2264.52 2277.71 2281.91 2284.50 2286.80 2282.32 2271.54 2272.40 2278.65 2286.50 2290.46 2296.30 2302.68 2307.16 2312.81 2316.59 2323.94 2329.25 2335.87 2342.87 2348.91 2352.23 2353.97 2358.50 2359.54 2362.50
2674.17 2668.67 2658.39 2652.34 2641.33 2633.64 2629.50 2623.19 2614.84 2605.54 2602.22 2594.18 2588.55 2581.30 2576.45 2571.87 2564.31 2557.23 2550.32 2540.10 2533.23 2527.30 2519.77 2515.28 2509.26 2505.14 2499.77 2488.80 2478.12 2470.33 2460.64 2449.87 2443.22 2434.82 2418.61 2400.27 2381.77 2358.50 2346.87 2338.93 2334.40 2332.71 2332.86 2331.87 2330.98 2329.73 2322.66 2307.93 2306.10 2305.13 2305.60 2300.30 2296.38 2290.86 2286.70 2279.78 2274.64 2271.36 2270.48 2259.27 2249.50 2239.48 2227.25 2216.10 2207.37 2195.53 2181.94 2171.48 2162.58 2138.48 2116.62 2095.35 2073.87 2055.80 2032.70 2018.67 2002.41 1986.42 1972.93 1958.27 1941.11 1927.21 1914.27 1904.44 1895.79 1889.14 1885.73 1880.36 1873.94 1868.53 1867.73 1868.56 1866.85 1867.76 1866.79 1877.78 1884.58 1889.79 1896.89 1906.31 1910.90 1922.31 1934.86 1951.80 1967.11 1984.30 2000.86 2018.75 2038.18 2049.45 2065.37 2075.87 2084.39 2096.40 2107.28 2117.88 2128.26 2142.30 2163.83 2183.90 2197.26 2211.90 2215.86 2217.53 2222.63 2228.53 2234.55 2237.37 2238.60 2245.41 2255.86 2263.34 2266.15 2264.57 2262.47 2256.94 2261.37 2271.54 2282.90 2287.22 2293.54 2292.68 2291.23 2286.36 2275.62 2283.20 2294.72 2303.60 2312.37 2317.69 2322.37 2327.43 2330.47 2338.87 2343.52 2348.96 2356.22 2360.81 2365.40 2368.11 2372.90 2376.35 2383.67
2668.20 2662.87 2652.36 2642.83 2629.66 2622.30 2617.54 2608.84 2595.96 2593.55 2588.89 2581.20 2577.71 2574.52 2569.47 2557.41 2552.42 2543.55 2538.36 2531.40 2525.76 2518.94 2514.40 2508.38 2503.96 2499.50 2491.48 2480.27 2468.25 2457.80 2453.29 2448.20 2440.63 2436.31 2424.87 2400.72 2379.90 2359.77 2344.33 2336.23 2333.34 2335.90 2338.14 2334.47 2332.18 2330.60 2330.22 2329.21 2312.37 2292.90 2286.80 2282.27 2278.47 2275.82 2271.97 2270.80 2263.52 2257.16 2254.21 2252.78 2238.93 2227.67 2217.70 2205.20 2192.79 2179.70 2167.39 2152.40 2141.51 2128.64 2113.20 2093 2071.61 2055.63 2037.60 2018.15 1998.68 1979.32 1962.25 1951.69 1938.61 1922.43 1911.10 1898.41 1890.30 1881.61 1879.57 1873.22 1869.14 1865.66 1864.82 1863.78 1866.16 1865.55 1863.90 1867.59 1873.69 1878.21 1886.17 1892.30 1902.86 1916.10 1929.56 1945.41 1960.31 1979.14 2000.33 2018.60 2034.92 2050.90 2066.78 2081.43 2087.58 2105.59 2118.12 2120.10 2127.31 2141.44 2158.81 2177.27 2188.21 2210.53 2216.78 2221.47 2227.89 2234.87 2240.60 2243.55 2247.98 2252.65 2258.97 2265.42 2265.52 2262.35 2257.82 2256.45 2266.97 2278.78 2286.17 2294.78 2293.88 2299.31 2299.62 2299.51 2293.22 2293.98 2304.93 2317.54 2327.61 2335.93 2340.32 2345.22 2350.78 2356.42 2361.78 2365.29 2368.32 2378.96 2382.10 2384.87 2385.88 2392.37 2400.21
2658.12 2650.92 2637.72 2627.76 2613.51 2609.76 2601.89 2593.95 2584.80 2577.90 2574.26 2566.47 2564.27 2557.10 2550.88 2545.22 2539.20 2535.89 2527.78 2521.17 2514.48 2509.60 2503.79 2493.46 2484.92 2476.26 2469.84 2464.72 2454.16 2444.72 2442.80 2441.65 2437.12 2431.80 2422.35 2404.88 2381.35 2362.58 2349.96 2337.37 2334.56 2336.95 2331.79 2325.71 2324.52 2322.27 2321.57 2321.58 2320.92 2308.35 2290.81 2273.45 2273.47 2270.48 2268.38 2261.42 2254.79 2250.58 2246.70 2240.37 2230.14 2220.44 2208.60 2199.52 2189.17 2176.70 2161.57 2145.60 2128.98 2114.19 2098.96 2083.26 2063.50 2042.68 2026.41 2008.66 1993.16 1976.43 1962.63 1946 1930.17 1917.80 1907.61 1895.34 1886.61 1879.39 1871.18 1867.56 1863.11 1863.75 1862.81 1864.13 1864.26 1863.59 1863.36 1861.16 1861.64 1869.30 1877.69 1888.48 1899.60 1910.72 1922.85 1942.52 1965.40 1983.45 2006.85 2031.97 2051.20 2063.67 2075.11 2082.42 2091.83 2100.85 2108.37 2115.53 2123.69 2135.50 2150.91 2166.56 2178.94 2199.20 2208.90 2215.30 2226.80 2242.30 2251.35 2260.20 2263.17 2260.20 2259.18 2257.70 2255.26 2254.57 2253.45 2260.32 2271.78 2282.95 2288.94 2296.20 2295.91 2299.30 2304.70 2308.25 2309.65 2311.69 2325.18 2340.10 2346.22 2357.96 2365.98 2371.20 2373.95 2375.90 2378.61 2381.33 2383.32 2388.35 2389.80 2392.98 2397.42 2406.17 2409.84
2645.10 2642.67 2629.22 2615.81 2606.93 2598.83 2587.40 2581.64 2573.70 2565.64 2563.72 2556.81 2550.51 2544.12 2541.60 2536.95 2531.31 2525.43 2516.62 2508.21 2502.70 2494.10 2483.57 2477.59 2471.59 2459.42 2454.19 2446.79 2442.50 2436.73 2436.51 2433.19 2427.86 2423.75 2417.11 2406.58 2395.32 2375.64 2362 2349.19 2338.39 2328.19 2319.31 2311.82 2306.15 2307.33 2309.95 2309.87 2306.11 2300.67 2287.72 2270 2259.85 2260.95 2256.39 2248.60 2237.81 2233.37 2232.37 2225.38 2217.67 2207.76 2195.61 2189.81 2183.96 2180.80 2173.37 2159.56 2137.68 2117.70 2100.21 2083.40 2069.48 2052.60 2034.61 2017.63 1999.45 1981.22 1961.65 1943.20 1924.92 1912.97 1902.45 1893.56 1884.52 1877.18 1869.70 1863.68 1860.10 1859.27 1860.20 1860.90 1862.16 1860.68 1861.46 1860.66 1858.91 1864.45 1873.50 1883.81 1894.53 1908.56 1921.77 1940.96 1960.18 1981.15 2005.60 2047.66 2068.62 2089.20 2094.87 2095.90 2099.47 2102.33 2108.46 2115.12 2124.12 2135.51 2147.89 2162.59 2178.93 2196.18 2205.78 2212.85 2221.88 2235.58 2249.60 2260.40 2259.58 2259.13 2257.91 2256.35 2254.21 2253.21 2253.61 2258.40 2275.16 2284.33 2287.80 2296.57 2297.91 2298.92 2305.40 2309.76 2313.32 2319 2338.28 2349.55 2362.97 2373.29 2379.39 2381.54 2387.40 2388.93 2390.54 2392.95 2394.77 2400.19 2400.72 2402.50 2407.68 2417.77 2419.83
2632.76 2625.73 2614.22 2606.20 2593.34 2588.37 2577.11 2568.15 2558.21 2551.61 2549.64 2546.94 2542.63 2537.63 2532.21 2525.77 2517.60 2513.17 2502.30 2492.34 2487.37 2476.21 2466.94 2457.89 2447.44 2441.77 2438.66 2435.31 2429.53 2427.31 2426.17 2424.27 2420.17 2416.72 2410.36 2405.17 2399.61 2388.80 2366.54 2347.63 2334.14 2324.42 2314.93 2305.48 2294.46 2291.71 2292.61 2290.15 2285.70 2286.25 2279.62 2255.13 2250.71 2243.98 2243.22 2230.62 2223.22 2215.66 2206.20 2197.18 2190.18 2184.61 2180.39 2177.58 2171.40 2168.18 2161.18 2148.46 2131.38 2113.34 2097.15 2079.29 2064.80 2049.15 2029.85 2009.97 1991.69 1977.28 1955.52 1937.32 1919.72 1904.76 1892.31 1887.90 1881.60 1873.54 1866.18 1861.80 1857.31 1858.42 1860.45 1859.17 1859.60 1858.71 1858.18 1858.54 1856.93 1861.51 1871.48 1881.54 1891.80 1906.50 1921.43 1937.76 1956.56 1978.40 2002.40 2024.23 2056.82 2077.26 2089.80 2092.75 2110.85 2113.80 2116.92 2119.51 2127.90 2135.53 2148.80 2165.71 2183.50 2195.79 2205.19 2212.50 2220.66 2229.18 2238.41 2244.18 2247.65 2249.65 2251.26 2251.80 2253.32 2258.80 2260.25 2265.35 2276.73 2282.40 2289 2291.25 2299.37 2304.11 2307.25 2311.69 2316.16 2330.17 2340.98 2360.38 2373.93 2384.62 2391.18 2396.69 2398.66 2397.77 2400.81 2402.80 2404.60 2407.86 2412.53 2413.32 2417.80 2421.10 2427.37
2621.33 2613.47 2603.91 2592.73 2584.56 2576.78 2569.34 2557.18 2547.97 2541.20 2534.84 2530.38 2528 2523.91 2518.77 2512.37 2504.81 2498.30 2489.21 2483.54 2468.19 2457.40 2446.75 2438.86 2430.32 2427.57 2426.26 2420.18 2419.46 2417.12 2417.53 2415.11 2407.89 2406.68 2402.65 2399.50 2395.57 2387.75 2371.12 2345.11 2326.97 2314.75 2302.61 2289.32 2277.30 2268.63 2265.57 2262.73 2257.59 2259.57 2254.70 2236.60 2223.90 2219.80 2210.57 2203.27 2199.80 2194.27 2196.16 2184.59 2176.41 2169.55 2168.87 2168.78 2164.27 2159.96 2156.96 2144.15 2119.27 2097.77 2079.50 2068.77 2055.90 2040.52 2026.75 2006.70 1987.30 1972.82 1952.14 1933.26 1917.45 1900.14 1885.83 1877.35 1872.50 1870.50 1865.40 1858.90 1855.10 1856.48 1857.67 1857.16 1857.43 1857.80 1856.28 1854.55 1855.28 1861.52 1871.93 1882.95 1890.80 1902.60 1918.77 1938.64 1960.33 1985.43 1997.95 2025.90 2038.38 2055.37 2070.18 2090.38 2117.40 2123.91 2125.53 2129.54 2134.60 2143.27 2151.78 2162.94 2181.30 2199.46 2208.10 2218.32 2227.81 2234.19 2238.88 2244.38 2248.17 2251.71 2256.76 2259.60 2261.85 2269.81 2274.51 2279.60 2283.93 2294.20 2303.42 2307.70 2312.39 2316.91 2319.44 2318.12 2323.98 2336.46 2349.55 2366.27 2381.82 2393.92 2401.50 2408.43 2412.40 2412.91 2410.48 2407.48 2405.83 2411.55 2417.30 2420.20 2425.72 2431.15 2437.87
2620.95 2609.58 2594.96 2586.12 2574.87 2568.63 2557.27 2548.70 2537.70 2526.57 2521.29 2515.85 2512 2506.88 2502.22 2498.70 2493.91 2485.81 2478.22 2469.82 2456.57 2437.94 2426.38 2414.97 2412.40 2408.38 2406.94 2403.88 2403.59 2406.90 2406.12 2404.19 2399.95 2394.14 2387.93 2383.46 2380.28 2375.78 2367.36 2346.61 2315.25 2302.83 2286.89 2274.98 2259.80 2250.92 2247.37 2237.65 2231.83 2228.16 2228.11 2219.60 2211.29 2207.68 2192.61 2176.75 2168.80 2171.78 2170.18 2169.47 2163.75 2161.52 2163.40 2160.73 2155.48 2143.70 2139.94 2125.32 2103.77 2087.44 2057.81 2050.70 2043.83 2036.26 2020.98 2004.60 1987.50 1970.70 1949.98 1930.31 1913.59 1897.45 1882.40 1871.83 1866.20 1862.31 1860.68 1858.59 1854.10 1855.94 1855.63 1856.20 1856.20 1854.25 1854.30 1852.34 1854.10 1861.92 1868.60 1876.86 1884.70 1898.32 1917.19 1938.55 1958.46 1983.71 2013.48 2028.51 2038.81 2057.22 2076.80 2095.91 2121.80 2129.21 2138.38 2139.30 2148.45 2152.80 2157.10 2165.81 2176.84 2193.45 2211.21 2227.97 2236.78 2240.30 2246.53 2252.13 2258.20 2265.29 2270.87 2274.56 2275.25 2279.81 2284.70 2291.90 2301.48 2310.67 2317.88 2322.33 2325.73 2329.42 2333.30 2333.55 2336.29 2344.63 2357.23 2371.85 2383.69 2395.95 2404.25 2410.44 2414.59 2417.12 2419.10 2415.68 2418.91 2421.65 2428.27 2429.61 2437.70 2445.55 2453.90
2613.72 2608.67 2598.16 2580.25 2568.20 2558.23 2549.21 2537.33 2525.41 2513.41 2503.68 2497.20 2495.66 2493.95 2490.92 2483.87 2478.97 2472.27 2466.48 2459.76 2446.62 2423.93 2409.26 2402.68 2397.62 2396.31 2394.92 2389.91 2388.30 2390.56 2388.80 2386.52 2382.50 2377.55 2372.75 2369.69 2363.87 2356.30 2345.15 2320.13 2304.12 2291.78 2279.65 2265.16 2244.38 2239.98 2238.17 2229.34 2219.87 2210.35 2199.91 2193.78 2182.72 2175.78 2169.51 2163.55 2159.90 2154.70 2155.75 2152.85 2151.87 2152.20 2150.20 2146.10 2129.82 2116.38 2104.30 2085.59 2071.22 2060.45 2047.33 2032.55 2023.31 2019.81 2017.89 2002 1982.64 1965.23 1945.20 1927.58 1911.20 1896.56 1881.58 1869 1863.35 1858.31 1856.26 1856.14 1853.36 1853.81 1853.32 1854.36 1853.54 1854.68 1851.66 1850.85 1853.60 1862.19 1867.63 1873.16 1884.80 1899.80 1918.43 1936.59 1956.23 1977.25 2011.38 2027.68 2040.71 2058.80 2084.22 2106.25 2117.76 2127.50 2135.87 2145.71 2160.31 2162.34 2164.82 2171.34 2182.10 2194.92 2211.63 2229.69 2242.31 2248.56 2256.10 2263.98 2266.81 2272.68 2275.87 2281.19 2285.84 2290.50 2299.90 2301.68 2310.26 2317.19 2323.28 2328.37 2336.40 2341.22 2346.40 2350.75 2356.40 2362.83 2371 2381.96 2395.46 2406.20 2418.44 2426.43 2429.13 2430.50 2432.81 2433.71 2432.64 2434.66 2439.10 2443.40 2453.38 2463.67 2472.77
2609.62 2602.10 2592.60 2580.34 2568.53 2549.38 2535.31 2525.33 2515.92 2505.62 2493.41 2487.87 2483.50 2482.36 2477.40 2471.67 2466.38 2459.62 2451.37 2441.62 2427.52 2411.77 2400.51 2393.12 2387.50 2381.89 2377.27 2373.87 2372.37 2370.43 2369.84 2365.63 2361.70 2358.87 2356.33 2341.40 2325.66 2317.69 2312.76 2303.80 2293.19 2284.35 2276.13 2260.85 2238.40 2229.10 2221.18 2216.28 2211.14 2202.42 2190.61 2180.38 2174.10 2165.68 2156.27 2151.79 2151.12 2148.71 2143.79 2140.54 2140.50 2143.22 2141.22 2136.94 2113.14 2093.91 2081.58 2055.81 2042.42 2034.68 2018.93 2016.15 2004.96 1999.42 2000.92 1998.35 1981.73 1963.65 1941.98 1923.56 1905.82 1893.68 1881.40 1869.81 1860.93 1857.15 1854.31 1852.21 1851.33 1851.71 1852.20 1852.68 1852.26 1850.89 1850.63 1848.91 1849.20 1851.81 1860.83 1870.41 1884.22 1901.10 1922.71 1940.50 1957.61 1976.50 1999.53 2024.46 2037.43 2058.82 2079.13 2104.18 2119.64 2129.66 2139.31 2153.39 2162.93 2168.69 2176.18 2183.37 2189.19 2202.44 2213.62 2234.46 2244.87 2253.87 2264.88 2270.37 2276.12 2286.58 2288.79 2294.37 2299.37 2305.92 2307.10 2305.43 2313.41 2322.14 2327.50 2339.27 2349.37 2357.10 2363.32 2367.32 2373.47 2379.73 2388.50 2399.22 2411.85 2423.55 2435.15 2442.87 2447.31 2446.37 2447.29 2444.70 2441.90 2443.62 2449.60 2458.40 2471.73 2481.50 2488.48
2605.42 2593.31 2586.55 2574.26 2565.37 2551.45 2533.57 2515.30 2503.68 2493.76 2488.57 2481.98 2476.85 2471.43 2465.55 2461.54 2455.20 2447.90 2436.12 2417.67 2407.28 2400.22 2392.30 2381.31 2379.40 2370.98 2362.38 2357.69 2356.31 2355.25 2352.18 2348.80 2344.48 2336 2329.83 2315.12 2310.29 2302.39 2292.64 2288.50 2283.76 2269.18 2256.15 2244.78 2228.78 2217.33 2208.17 2200.46 2193.55 2187.36 2181.96 2176.44 2169.83 2161.34 2152.53 2145.25 2145.83 2143.93 2138.44 2137.69 2132.80 2136.38 2124.93 2113.56 2098.23 2081.50 2060.29 2048.33 2039.84 2027.16 2011.10 1996.78 1985.53 1985.80 1982.30 1987.93 1976.83 1959.10 1939.23 1919.97 1903.23 1890.27 1879.17 1868.63 1862.35 1858.32 1854.84 1851.60 1848.88 1848.60 1849.54 1850.29 1848.81 1848.60 1848.64 1848.81 1848.45 1848.18 1858.60 1870.25 1882.85 1896.18 1918.77 1944.23 1965.93 1983.14 2000.63 2015.36 2027.53 2044.76 2063.94 2087.35 2107.40 2123.43 2145.61 2158.51 2174.38 2185.29 2186.14 2192.46 2200.30 2214.16 2227.60 2236.57 2250.16 2262.88 2267.56 2273.44 2276.96 2288.54 2292.85 2294.83 2300.69 2305.11 2307.72 2314.45 2321.37 2331.72 2340.64 2353.70 2364.80 2373.47 2379.19 2383.77 2390.68 2397.25 2407.30 2421.40 2436.58 2445.61 2454.92 2460.27 2464.79 2467.75 2464.20 2460.41 2458.35 2460.91 2466.17 2478.60 2487.80 2494.71 2504.67
2602.15 2591.69 2583.38 2575.46 2562.97 2548.96 2532.90 2517.90 2507.96 2492.70 2483.20 2477.87 2472.37 2468.19 2462.38 2456.69 2452.52 2441.88 2426.40 2407.70 2392.42 2383.23 2378.29 2374.55 2372.12 2367.82 2361.73 2358.46 2357.20 2357.59 2355.82 2352.65 2350.80 2342.10 2316 2300.68 2296 2289.20 2279.65 2271.86 2267.20 2258.36 2246.78 2237.29 2228.60 2217.36 2207.73 2198.53 2190.32 2183.85 2180.98 2179.37 2173.39 2174.70 2160.61 2146.14 2141.90 2138.97 2133.57 2128.36 2122.89 2116.21 2109.11 2102.90 2098.50 2088.61 2079.91 2078.91 2062.14 2043.90 2021.56 1997.59 1984.56 1972.21 1962.40 1967.89 1968.47 1952.90 1933.20 1918.98 1902.10 1888.84 1877.35 1870.45 1864.64 1860.60 1856.22 1851.76 1848.68 1848.81 1848.80 1848.65 1848.47 1848.77 1848.84 1848.82 1848.90 1848.55 1858.83 1871.40 1880.27 1894.31 1910.32 1931.21 1952.13 1980.39 2001.81 2014 2024.28 2037.61 2051.53 2070.33 2090.60 2105.98 2136.69 2161.41 2174.40 2183.16 2192.83 2200.35 2208.75 2223.63 2239.16 2245.96 2251.37 2262.56 2264.69 2269.87 2283.62 2291.63 2290.48 2295.29 2297.94 2308.78 2317.80 2328.96 2334.55 2343.60 2355.82 2367.43 2379.70 2388.33 2396.89 2402.43 2409.30 2415.80 2423.90 2434.18 2449.21 2463.84 2473.70 2480.43 2483.77 2484.80 2485.40 2485.16 2485.18 2483.50 2482.80 2486.66 2494.39 2504.73 2519.73
2598.67 2589.90 2581.88 2572.54 2559.83 2542.57 2532.60 2515.93 2505.12 2493.51 2483.62 2476.72 2470.79 2462.88 2455.12 2448.66 2438.41 2430.79 2419.65 2404.51 2386.72 2380.57 2377.34 2373.54 2370.69 2367.89 2363.83 2361.30 2359.36 2357.18 2352.37 2347.30 2341.89 2334.22 2314.16 2292.97 2285.35 2277.75 2270.38 2267.93 2263.87 2255.78 2246.21 2236.44 2224.96 2215.38 2206.22 2198.42 2190.40 2184.87 2181.17 2178.55 2168.20 2161.30 2155.96 2153.56 2145.87 2143.56 2139.77 2138.60 2134.91 2128.63 2127.36 2122.35 2115.85 2104.39 2087.90 2072.63 2058.58 2042.77 2018.85 1995.63 1983.83 1971.67 1961.57 1949.10 1951.93 1947.70 1928.60 1913.81 1900.75 1887.68 1880.53 1875.48 1868.94 1864.82 1858.68 1853.69 1849.30 1848.80 1848.82 1848.77 1848.76 1848.77 1848.81 1848.84 1848.78 1848.77 1855.76 1867.90 1877.75 1888.15 1903.56 1919.54 1938.54 1958.85 1979.15 1998.39 2021.10 2036.22 2050.75 2067.37 2082.70 2098.37 2119.22 2139.96 2161.44 2180.67 2197.14 2208.63 2216.60 2232.20 2243.70 2248.34 2254.23 2259.59 2264.51 2273.22 2282.38 2290.44 2300.20 2307.77 2314.48 2320.78 2325.46 2335.63 2342.89 2354.62 2370.79 2382.34 2396.29 2404.68 2412.46 2420.27 2426.96 2432.10 2436.86 2449.15 2462.83 2477.13 2490.21 2497.35 2501.33 2503.15 2500.28 2498.13 2493.20 2489.16 2484.65 2483.96 2493.97 2507.43 2525.50
2594.79 2585.14 2575.69 2568.47 2554.22 2535.30 2528.65 2515.41 2503.55 2493.57 2488.61 2480.51 2470.45 2461.40 2451.64 2440.54 2426.30 2414.48 2405.75 2395.88 2388.80 2382.91 2376.82 2373.70 2370.91 2368.17 2367.60 2365.12 2362.84 2357.23 2346.85 2340.15 2334.62 2324.66 2306.90 2290.11 2278.68 2270.83 2265.96 2264.83 2262.21 2257.90 2248.82 2238.60 2228.86 2219.95 2213.18 2205.56 2196.95 2190.80 2183.60 2176.27 2171.48 2167.67 2163.36 2160.62 2159.94 2157.34 2154.90 2154.79 2151.44 2143.64 2134.75 2127.50 2119.65 2108.16 2091.17 2075.96 2055.50 2034.97 2017.79 1997.90 1980.55 1967.56 1955.83 1948.52 1935.43 1933.81 1927.30 1910.42 1898.56 1890.86 1883.19 1875.36 1869.53 1864.84 1858.63 1853.90 1849.40 1848.81 1848.75 1848.79 1848.79 1848.78 1848.82 1848.80 1848.75 1848.81 1849.30 1859.51 1869.97 1881.80 1896.33 1911.70 1927.30 1946.14 1969.50 2003.28 2027.56 2035.70 2048.10 2064 2078.33 2088.37 2115.91 2150.48 2172.35 2187.13 2200.75 2213.92 2223.14 2234.31 2247.21 2252.21 2263.83 2270.58 2272.16 2281.93 2293.60 2299.39 2307.41 2315.46 2325.68 2331.16 2337.78 2348.44 2356.14 2364.89 2381.32 2395.32 2404.77 2414.31 2419.91 2423.91 2432.91 2439.77 2443.80 2457.61 2475.50 2492.37 2504.70 2512.61 2517.70 2518.35 2512.95 2507.29 2502.47 2496.61 2490.77 2493.95 2504.84 2515.20 2529.56
2593.16 2580.91 2570.26 2561.18 2551.27 2533.60 2525.60 2512.87 2496.14 2490.89 2484.87 2476.37 2466.14 2456.12 2446.94 2432.34 2423.26 2416.10 2406.62 2399.60 2392.85 2387.85 2384.19 2379.26 2375.20 2370.77 2365.61 2362.10 2349.71 2339.95 2333.88 2329.48 2325.85 2316.19 2302.93 2292.71 2284.31 2271.62 2264.60 2261.61 2259.97 2257.16 2251.93 2247.90 2244.10 2237.18 2228.50 2218.32 2210.64 2200.72 2195.46 2188.29 2183.37 2180.39 2176.95 2175.60 2171.75 2167.50 2158.64 2152.32 2142.36 2132.57 2127.40 2119.96 2113.55 2102.17 2091.30 2080.39 2067.83 2043.85 2024.19 2004.18 1983.14 1968.20 1953.86 1946.82 1938.90 1924.71 1916.56 1907.44 1899.80 1891.21 1885.93 1879.64 1873.60 1866.70 1858.46 1853.56 1848.53 1848.81 1848.81 1848.79 1848.81 1848.80 1848.81 1848.82 1848.78 1848.82 1848.89 1849.80 1863.45 1876.80 1889.71 1904.65 1921.66 1940.51 1962.75 1987.56 2020.18 2032.68 2042.18 2054.78 2070.40 2085.93 2103.26 2138.37 2154.89 2172.89 2192.70 2213.31 2226.52 2236.85 2245.31 2257.50 2271.36 2281.90 2287.68 2294.26 2306.26 2316.41 2322.84 2331.98 2337.72 2342.10 2351.93 2361.52 2368.95 2378.59 2392.93 2406.31 2419 2430.64 2435.39 2438.71 2443.17 2447 2453.67 2462.97 2475.93 2486.89 2494.51 2503.12 2509.23 2517.30 2520.94 2517.80 2515.44 2515.28 2511.53 2515.72 2524.13 2534.62 2547.55
