ncols 250
nrows 63
xllcorner 103.938904
yllcorner 2710.112915
cellsize 25
NODATA_value -9999
0     0     0     0     0     0     0     0     0     0     0     0     0     0     0     0     0     0     0     0     0     0     0     0     0     0     0     0     0     0     0     0     0     0     0     0     0     0     0     0     0     0     0     0     0     0     0     0     0     0     0     0     0     0     0     0     0     0     0     0     0     0     0     0     0     0     0     0     0     0     0     0     0     0     0     0     0     0     0     0     0     0     0     0     0     0     0     0     0     0     0     0     0     0     0     0     0     0     0     0     0     0     0     0     0     0     0     0     0     0     0     0     0     0     0     4     7    10     7     8     7     7     8     8    11    12    10    11    12    10    10    12    12    12    15    17    19    18    21    19    20    15    14    16    21    34    32    35    34    38    41    45    54    63    64    63    65    76    85    84    87    88    86    85    85    90    87    86    84    80    76    69    55    45    37    28    29    37    40    47    41    36    34    33    31    25    23    27    30    29    24    16    18    22    26    29    26    21    23    21    24    26    24    26    23    18    14    14    14    14    14    17    15    12    15    21    23    19    18    16    13    14    15    17    11    13    15    19    16    17    17    15    18    15    13    14    17    19    13    14    12    18    25    19    18    18    20    23    23    22
0     0     0     0     0     0     0     0     0     0     0     0     0     0     0     0     0     0     0     0     0     0     0     0     0     0     0     0     0     0     0     0     0     0     0     0     0     0     0     0     0     0     0     0     0     0     0     0     0     0     0     0     0     0     0     0     0     0     0     0     0     0     0     0     0     0     0     0     0     0     0     0     0     0     0     0     0     0     0     0     0     0     0     0     0     0     0     0     0     0     0     0     0     0     0     0     0     0     0     0     0     0     0     0     0     0     0     0     0     0     0     0     0     0     0     6     8     7     7     7     7     7     7     9     9    12    14    14    12    12    12    12    11     9    11    16    19    22    20    23    20    17    16    17    21    31    34    35    32    34    38    46    55    58    64    67    69    75    82    82    87    91    90    88    91    94    89    93    90    79    75    69    60    48    34    26    26    40    48    47    43    43    38    40    32    26    26    29    30    30    25    18    17    22    26    27    21    18    20    19    24    31    27    25    21    17    14    13    14    16    15    16    16    13    16    19    22    20    16    15    15    16    16    17    14    15    14    15    16    16    16    12    14    13    11    13    12    12    10    12    14    21    23    22    18    19    23    25    26    26
0     0     0     0     0     0     0     0     0     0     0     0     0     0     0     0     0     0     0     0     0     0     0     0     0     0     0     0     0     0     0     0     0     0     0     0     0     0     0     0     0     0     0     0     0     0     0     0     0     0     0     0     0     0     0     0     0     0     0     0     0     0     0     0     0     0     0     0     0     0     0     0     0     0     0     0     0     0     0     0     0     0     0     0     0     0     0     0     0     0     0     0     0     0     0     0     0     0     0     0     0     0     0     0     0     0     0     0     0     0     0     0     0     0     8     5     7     8    11     8     8     8     9     8     8    10    13    13    11    11    12    13    10    10    11    16    14    21    22    23    21    19    18    18    21    25    26    30    28    28    33    39    48    58    61    66    64    67    73    78    83    89    90    97    99    97    93    97    91    84    79    73    67    54    35    26    31    38    44    47    46    46    37    34    37    35    36    35    37    32    23    16    15    19    20    19    18    16    18    17    23    30    26    20    20    16    16    14    15    14    14    15    15    14    15    18    18    17    16    15    15    18    12    15    21    18    14    13    14    12    10    13    15    12    13    13    11    12    14    15    15    19    20    26    18    20    22    27    27    22
0     0     0     0     0     0     0     0     0     0     0     0     0     0     0     0     0     0     0     0     0     0     0     0     0     0     0     0     0     0     0     0     0     0     0     0     0     0     0     0     0     0     0     0     0     0     0     0     0     0     0     0     0     0     0     0     0     0     0     0     0     0     0     0     0     0     0     0     0     0     0     0     0     0     0     0     0     0     0     0     0     0     0     0     0     0     0     0     0     0     0     0     0     0     0     0     0     0     0     0     0     0     0     0     0     0     0     0     0     0     0     0     0     0     8     4     7     7     8     7     8     8    11     9     8     8    11    12    12    12    11    10    10     9    10     8    13    16    22    24    24    23    22    21    19    20    28    31    38    33    34    36    43    51    63    62    68    63    60    71    77    89    94   102   104   103    99   100    97    91    86    81    73    59    41    32    30    34    44    47    49    42    42    39    41    38    37    38    39    32    22    18    20    23    23    22    20    20    20    19    23    26    22    18    20    19    21    16    14    13    12    13    14    14    13    15    17    15    14    12    16    25    20    23    28    24    18    15    12    12    14    15    15    14    16    16    19    15    17    17    17    19    21    26    24    22    21    22    21    19
0     0     0     0     0     0     0     0     0     0     0     0     0     0     0     0     0     0     0     0     0     0     0     0     0     0     0     0     0     0     0     0     0     0     0     0     0     0     0     0     0     0     0     0     0     0     0     0     0     0     0     0     0     0     0     0     0     0     0     0     0     0     0     0     0     0     0     0     0     0     0     0     0     0     0     0     0     0     0     0     0     0     0     0     0     0     0     0     0     0     0     0     0     0     0     0     0     0     0     0     0     0     0     0     0     0     0     0     0     0     0     0     0     0     7     4     7    10     8     7     8     8     8    10     9     9    10    11    10    11    11    10     9    10    13    10    14    13    19    22    22    22    21    17    16    17    28    31    36    37    34    35    43    53    60    57    61    60    62    58    73    84    91    98   104   105   108   100   104   101    95    90    82    67    55    44    34    33    41    44    48    53    49    46    41    43    47    45    41    37    30    24    21    21    22    20    21    25    21    22    23    21    18    19    22    25    22    20    16    13    14    13    14    15    17    19    21    19    19    15    20    26    25    30    35    26    21    18    16    15    17    15    16    19    22    20    19    14    15    14    17    23    24    23    24    22    22    21    19    18
0     0     0     0     0     0     0     0     0     0     0     0     0     0     0     0     0     0     0     0     0     0     0     0     0     0     0     0     0     0     0     0     0     0     0     0     0     0     0     0     0     0     0     0     0     0     0     0     0     0     0     0     0     0     0     0     0     0     0     0     0     0     0     0     0     0     0     0     0     0     0     0     0     0     0     0     0     0     0     0     0     0     0     0     0     0     0     0     0     0     0     0     0     0     0     0     0     0     0     0     0     0     0     0     0     0     0     0     0     0     0     0     0     0     0     4     8     6     8     7     8     8    10     9    10     7    10    11    11    11    12     9     9     7     8     9    13    14    19    16    19    17    16    16    16    17    25    29    29    32    37    40    45    52    52    57    59    57    56    63    67    76    86    94   102   105   108   110   112   109   106   102    90    78    69    54    41    34    36    42    42    48    58    52    47    46    51    45    42    40    36    28    26    24    23    23    24    27    25    24    21    18    16    18    23    23    17    24    20    18    18    18    19    18    21    24    26    28    22    19    24    28    34    30    31    22    18    15    10    12    14    16    21    22    20    20    19    18    17    18    23    31    32    32    30    30    27    27    21    21
0     0     0     0     0     0     0     0     0     0     0     0     0     0     0     0     0     0     0     0     0     0     0     0     0     0     0     0     0     0     0     0     0     0     0     0     0     0     0     0     0     0     0     0     0     0     0     0     0     0     0     0     0     0     0     0     0     0     0     0     0     0     0     0     0     0     0     0     0     0     0     0     0     0     0     0     0     0     0     0     0     0     0     0     0     0     0     0     0     0     0     0     0     0     0     0     0     0     0     0     0     0     0     0     0     0     0     0     0     0     0     0     0     0     0     0     5     5     7    10     7     7    11    11    10     8     9    11     9    12    13     9     8     9    11    11    14    16    14    15    14    14    16    19    16    18    25    26    26    28    36    44    49    59    55    56    54    50    47    53    64    69    82    87    90   100   103   110   108   106   106   105    94    85    78    70    58    44    39    33    37    44    52    58    62    58    57    53    42    38    34    30    32    27    24    24    30    28    30    27    21    18    16    20    21    17    16    22    23    21    23    24    21    17    18    19    22    25    25    24    25    32    35    35    28    21    14    10     9    11    14    16    19    19    19    19    20    14    17    21    27    28    28    30    30    32    29    27    31    24
0     0     0     0     0     0     0     0     0     0     0     0     0     0     0     0     0     0     0     0     0     0     0     0     0     0     0     0     0     0     0     0     0     0     0     0     0     0     0     0     0     0     0     0     0     0     0     0     0     0     0     0     0     0     0     0     0     0     0     0     0     0     0     0     0     0     0     0     0     0     0     0     0     0     0     0     0     0     0     0     0     0     0     0     0     0     0     0     0     0     0     0     0     0     0     0     0     0     0     0     0     0     0     0     0     0     0     0     0     0     0     0     0     0     0     4     5     5     6    12     9     7    10    10    11     9     8     8     9    12    13     8     9    10    11    14    15    15    14    17    17    18    15    15    15    20    20    22    24    25    32    35    44    51    54    53    47    43    42    46    56    65    71    78    83    93    99   103   104   105   108   103    95    90    85    84    76    65    53    42    39    44    50    53    61    55    57    51    43    37    37    34    36    33    26    26    31    31    30    30    28    26    24    22    19    19    17    19    22    21    23    22    23    22    19    16    21    23    22    18    20    26    34    34    25    20    15    15     9    12    12    13    15    17    17    18    17    14    18    23    30    26    28    31    37    39    34    26    24    28
0     0     0     0     0     0     0     0     0     0     0     0     0     0     0     0     0     0     0     0     0     0     0     0     0     0     0     0     0     0     0     0     0     0     0     0     0     0     0     0     0     0     0     0     0     0     0     0     0     0     0     0     0     0     0     0     0     0     0     0     0     0     0     0     0     0     0     0     0     0     0     0     0     0     0     0     0     0     0     0     0     0     0     0     0     0     0     0     0     0     0     0     0     0     0     0     0     0     0     0     0     0     0     0     0     0     0     0     0     0     0     0     0     0     0     0     5     5     8    10     9     8    10     9    10    11     9    11     9    10    14    11     9    11    11    12    13    12    12    15    17    20    17    17    16    20    18    20    26    27    30    34    41    49    53    48    48    47    45    39    48    59    70    73    77    88    92    97    98    99   102   104   101   100    99    98    92    81    71    55    50    47    45    47    54    58    52    53    45    40    38    37    41    40    39    33    30    28    26    28    28    28    30    25    19    19    19    20    22    22    21    23    24    23    24    19    18    20    21    18    17    24    35    36    31    20    14    15    12    13    12    13    14    15    14    17    15    16    21    26    24    28    33    34    44    49    50    33    29    34
0     0     0     0     0     0     0     0     0     0     0     0     0     0     0     0     0     0     0     0     0     0     0     0     0     0     0     0     0     0     0     0     0     0     0     0     0     0     0     0     0     0     0     0     0     0     0     0     0     0     0     0     0     0     0     0     0     0     0     0     0     0     0     0     0     0     0     0     0     0     0     0     0     0     0     0     0     0     0     0     0     0     0     0     0     0     0     0     0     0     0     0     0     0     0     0     0     0     0     0     0     0     0     0     0     0     0     0     0     0     0     0     0     0     0     0     0     6     9     9     9    10    12    11    12    11    11    10    11    10    13    12     9    12    14    13    13    15    16    14    17    19    19    21    17    18    18    19    22    28    29    31    38    45    49    48    45    48    47    43    46    54    59    65    69    73    86    92    93    94   102   108   112   117   115   110   105    96    87    72    63    54    49    48    52    60    56    58    50    42    40    40    39    38    37    34    32    29    24    29    33    36    34    27    20    24    21    23    22    21    23    24    25    24    25    22    18    18    18    14    19    31    41    41    33    22    17    13    14    14    14    18    18    19    19    16    18    20    25    23    25    29    28    32    47    50    46    48    33    33
0     0     0     0     0     0     0     0     0     0     0     0     0     0     0     0     0     0     0     0     0     0     0     0     0     0     0     0     0     0     0     0     0     0     0     0     0     0     0     0     0     0     0     0     0     0     0     0     0     0     0     0     0     0     0     0     0     0     0     0     0     0     0     0     0     0     0     0     0     0     0     0     0     0     0     0     0     0     0     0     0     0     0     0     0     0     0     0     0     0     0     0     0     0     0     0     0     0     0     0     0     0     0     0     0     0     0     0     0     0     0     0     0     0     0     0     0     6    10     8     9     9    10    11    11    11    11    10    11    12    11    11     9     9    12    13    19    17    18    18    19    20    19    17    16    19    15    18    21    26    23    23    26    36    41    48    48    51    50    49    48    47    50    59    62    71    84    98    95    95   103   113   116   118   120   123   117   110    93    79    74    68    64    61    58    61    62    59    54    48    47    47    45    43    41    36    35    30    28    28    33    32    33    26    20    19    22    24    25    25    22    19    21    22    25    20    16    17    17    17    22    39    47    40    30    23    21    14    15    15    16    18    21    20    17    18    15    17    17    17    25    29    37    38    37    43    52    44    43    33
0     0     0     0     0     0     0     0     0     0     0     0     0     0     0     0     0     0     0     0     0     0     0     0     0     0     0     0     0     0     0     0     0     0     0     0     0     0     0     0     0     0     0     0     0     0     0     0     0     0     0     0     0     0     0     0     0     0     0     0     0     0     0     0     0     0     0     0     0     0     0     0     0     0     0     0     0     0     0     0     0     0     0     0     0     0     0     0     0     0     0     0     0     0     0     0     0     0     0     0     0     0     0     0     0     0     0     0     0     0     0     0     0     0     0     0     0     5     9     8     9     9     7    10    11    11    11    11    11    10     9    10     9     9    11    14    18    22    20    16    18    19    20    18    17    16    15    18    21    22    23    22    27    37    45    50    56    60    59    56    54    55    55    56    68    76    88   100   100   104   113   116   119   119   127   124   124   122   108    94    84    79    76    74    75    69    63    65    62    56    53    52    52    49    45    41    35    29    29    33    35    29    26    25    20    19    20    23    24    24    20    20    20    23    28    25    16    16    17    20    26    39    44    37    32    27    20    15    15    17    21    20    22    24    21    17    16    17    17    14    23    30    41    33    40    39    51    47    50    44
0     0     0     0     0     0     0     0     0     0     0     0     0     0     0     0     0     0     0     0     0     0     0     0     0     0     0     0     0     0     0     0     0     0     0     0     0     0     0     0     0     0     0     0     0     0     0     0     0     0     0     0     0     0     0     0     0     0     0     0     0     0     0     0     0     0     0     0     0     0     0     0     0     0     0     0     0     0     0     0     0     0     0     0     0     0     0     0     0     0     0     0     0     0     0     0     0     0     0     0     0     0     0     0     0     0     0     0     0     0     0     0     0     0     0     0     0    10    12     8    11    11     7    10    10    11    12    11    13    11     7     8     9     9     9    12    17    19    21    17    17    18    17    19    22    22    17    15    20    23    27    28    32    44    48    54    59    60    65    68    63    64    65    71    70    82    89    96    99   107   114   121   122   124   127   126   127   126   119   104    94    85    81    84    83    78    75    69    65    61    60    57    58    58    53    49    39    35    33    36    37    35    28    28    20    20    22    24    23    21    18    19    19    24    24    24    21    20    23    28    31    36    37    36    37    32    24    16    18    22    26    24    22    22    21    17    18    18    21    16    19    32    37    44    42    48    54    51    48    48
0     0     0     0     0     0     0     0     0     0     0     0     0     0     0     0     0     0     0     0     0     0     0     0     0     0     0     0     0     0     0     0     0     0     0     0     0     0     0     0     0     0     0     0     0     0     0     0     0     0     0     0     0     0     0     0     0     0     0     0     0     0     0     0     0     0     0     0     0     0     0     0     0     0     0     0     0     0     0     0     0     0     0     0     0     0     0     0     0     0     0     0     0     0     0     0     0     0     0     0     0     0     0     0     0     0     0     0     0     0     0     0     0     0     0     0     0    12     8    11     8    11    10    11    11    13    14    11    12    10     9     7     8     9     8    10    12    18    23    19    18    18    14    17    22    23    22    24    25    27    29    37    42    46    50    54    60    59    70    73    71    69    73    84    89    91    88    95   103   113   117   118   126   125   126   128   132   130   127   116   107    95    88    83    88    81    78    74    69    67    69    69    58    55    54    54    46    40    36    35    38    40    32    28    28    21    22    23    22    21    20    18    18    19    20    22    22    25    30    33    33    33    31    35    32    35    28    19    22    25    26    23    18    20    21    20    23    24    28    23    25    35    39    45    48    56    53    52    48    42
0     0     0     0     0     0     0     0     0     0     0     0     0     0     0     0     0     0     0     0     0     0     0     0     0     0     0     0     0     0     0     0     0     0     0     0     0     0     0     0     0     0     0     0     0     0     0     0     0     0     0     0     0     0     0     0     0     0     0     0     0     0     0     0     0     0     0     0     0     0     0     0     0     0     0     0     0     0     0     0     0     0     0     0     0     0     0     0     0     0     0     0     0     0     0     0     0     0     0     0     0     0     0     0     0     0     0     0     0     0     0     0     0     0     0     0     0    12    10    11     9    11    12    14    13    13    12    14    12     9     9     8     9     9     8    10    16    20    24    26    27    23    20    20    23    24    23    22    25    28    34    42    46    47    49    53    60    67    77    80    77    78    85    95    98    95    90    90   101   115   121   123   126   125   123   129   136   136   136   134   127   117   104    94    91    88    82    78    74    74    79    76    65    55    51    56    51    46    41    39    43    42    39    34    32    27    26    23    21    21    19    15    16    18    17    17    20    30    34    36    32    30    24    25    32    34    27    21    19    20    24    21    18    20    21    23    25    26    21    30    38    41    45    49    50    51    57    57    54    44
0     0     0     0     0     0     0     0     0     0     0     0     0     0     0     0     0     0     0     0     0     0     0     0     0     0     0     0     0     0     0     0     0     0     0     0     0     0     0     0     0     0     0     0     0     0     0     0     0     0     0     0     0     0     0     0     0     0     0     0     0     0     0     0     0     0     0     0     0     0     0     0     0     0     0     0     0     0     0     0     0     0     0     0     0     0     0     0     0     0     0     0     0     0     0     0     0     0     0     0     0     0     0     0     0     0     0     0     0     0     0     0     0     0     0     0     0    14     8     7     8    12    13    12    10    10    11     9    10     9     9    12    11    12    11    12    18    18    25    32    33    28    27    18    22    20    22    25    26    31    41    49    50    51    53    57    61    69    80    81    84    86    94   105   110   101    95    96   107   119   124   125   123   125   123   127   136   141   145   146   140   129   118   109    96    83    74    76    79    79    77    75    68    58    56    58    54    51    46    41    36    37    42    37    36    29    28    27    26    25    23    21    17    18    17    20    29    31    34    32    28    19    18    18    30    30    27    22    20    24    25    22    23    20    21    25    27    29    28    37    47    47    48    59    56    55    57    57    53    45
0     0     0     0     0     0     0     0     0     0     0     0     0     0     0     0     0     0     0     0     0     0     0     0     0     0     0     0     0     0     0     0     0     0     0     0     0     0     0     0     0     0     0     0     0     0     0     0     0     0     0     0     0     0     0     0     0     0     0     0     0     0     0     0     0     0     0     0     0     0     0     0     0     0     0     0     0     0     0     0     0     0     0     0     0     0     0     0     0     0     0     0     0     0     0     0     0     0     0     0     0     0     0     0     0     0     0     0     0     0     0     0     0     0     0     0     0     6     8     9    10    12    12    11    10    10    12     8     7    10    13    13    11    11    12    12    17    20    26    32    33    30    31    28    22    21    21    25    26    35    42    49    54    57    60    63    62    68    77    78    83    91   100   110   112   107   105   106   112   120   125   120   118   122   115   122   133   139   143   142   135   137   125   112   108    96    77    79    86    87    80    71    62    56    54    58    65    55    52    47    40    39    42    46    39    34    30    28    29    30    27    24    19    20    21    22    26    33    38    25    26    21    19    25    26    21    20    23    25    25    29    27    27    21    22    28    31    36    42    46    54    60    57    54    56    62    57    57    53    47
0     0     0     0     0     0     0     0     0     0     0     0     0     0     0     0     0     0     0     0     0     0     0     0     0     0     0     0     0     0     0     0     0     0     0     0     0     0     0     0     0     0     0     0     0     0     0     0     0     0     0     0     0     0     0     0     0     0     0     0     0     0     0     0     0     0     0     0     0     0     0     0     0     0     0     0     0     0     0     0     0     0     0     0     0     0     0     0     0     0     0     0     0     0     0     0     0     0     0     0     0     0     0     0     0     0     0     0     0     0     0     0     0     0     0     0     0     0     9    10     9    11    11     9    11     9    11     9     9    13    11     9     8     8    10    12    16    22    24    25    30    32    33    27    23    21    21    20    26    35    42    51    57    59    60    62    62    69    71    76    84    91   100   107   111   112   113   113   114   121   125   127   120   122   119   125   129   128   129   133   131   128   126   123   116   103    99    95    87    87    82    77    71    65    59    61    64    57    52    47    45    36    35    39    36    31    29    27    28    33    31    26    22    23    27    23    25    24    25    26    31    31    26    25    25    19    16    18    23    25    28    29    22    23    22    28    33    33    46    48    58    62    66    57    56    60    62    59    60    59
0     0     0     0     0     0     0     0     0     0     0     0     0     0     0     0     0     0     0     0     0     0     0     0     0     0     0     0     0     0     0     0     0     0     0     0     0     0     0     0     0     0     0     0     0     0     0     0     0     0     0     0     0     0     0     0     0     0     0     0     0     0     0     0     0     0     0     0     0     0     0     0     0     0     0     0     0     0     0     0     0     0     0     0     0     0     0     0     0     0     0     0     0     0     0     0     0     0     0     0     0     0     0     0     0     0     0     0     0     0     0     0     0     0     0     0     0     0     3     7     9    10    11    13    12     9    10    12    12    16    10     9    10     7     7     8    10    17    22    21    29    33    31    26    24    22    25    24    29    37    42    49    55    57    54    54    59    62    67    74    78    82    86    94   105   108   109   108   106   110   112   117   119   115   114   120   122   127   127   122   121   124   124   129   125   129   128   120   104    96    87    86    83    78    77    64    69    59    52    50    42    36    35    34    32    27    26    31    33    36    35    30    26    24    27    26    20    20    24    25    27    30    31    27    26    23    19    18    20    22    23    24    24    24    25    26    33    37    52    56    62    61    63    55    56    59    65    71    69    70
0     0     0     0     0     0     0     0     0     0     0     0     0     0     0     0     0     0     0     0     0     0     0     0     0     0     0     0     0     0     0     0     0     0     0     0     0     0     0     0     0     0     0     0     0     0     0     0     0     0     0     0     0     0     0     0     0     0     0     0     0     0     0     0     0     0     0     0     0     0     0     0     0     0     0     0     0     0     0     0     0     0     0     0     0     0     0     0     0     0     0     0     0     0     0     0     0     0     0     0     0     0     0     0     0     0     0     0     0     0     0     0     0     0     0     0     0     0     0     7     9     7    12    10    11     7    10    11    13    13    10    12    10     8     7     5     8    17    20    24    28    29    24    26    25    24    24    21    26    31    36    44    47    47    48    48    55    60    67    71    74    77    80    82    93    97   102   102   101   101   103   108   103   102   108   108   110   115   119   118   112   110   116   120   128   129   128   128   120   120   104    96    93    91    92    82    67    71    53    48    44    40    29    36    33    29    24    26    31    35    37    33    29    27    27    28    23    23    20    22    29    30    30    26    22    21    20    18    18    18    18    19    24    26    25    30    35    42    51    61    63    63    63    59    61    62    67    76    81    78
0     0     0     0     0     0     0     0     0     0     0     0     0     0     0     0     0     0     0     0     0     0     0     0     0     0     0     0     0     0     0     0     0     0     0     0     0     0     0     0     0     0     0     0     0     0     0     0     0     0     0     0     0     0     0     0     0     0     0     0     0     0     0     0     0     0     0     0     0     0     0     0     0     0     0     0     0     0     0     0     0     0     0     0     0     0     0     0     0     0     0     0     0     0     0     0     0     0     0     0     0     0     0     0     0     0     0     0     0     0     0     0     0     0     0     0     0     0     3     5     6     8    12    10     9     9     9    11    14    14    10    12    11    10     9     6    10    12    17    22    28    28    27    27    29    29    29    26    22    24    27    34    41    43    42    42    53    54    53    56    62    61    66    72    74    79    89    94    93    94    95    99   101   103   104   106   107   110   107   109   112   114   111   111   115   118   120   121   123   122   123   121   114   114   101    86    68    67    61    54    51    44    37    39    37    27    22    28    30    32    38    35    35    33    31    27    21    19    18    20    24    32    30    27    24    24    24    25    28    25    22    23    27    29    24    30    41    50    54    55    61    63    64    59    60    63    69    75    80    77
0     0     0     0     0     0     0     0     0     0     0     0     0     0     0     0     0     0     0     0     0     0     0     0     0     0     0     0     0     0     0     0     0     0     0     0     0     0     0     0     0     0     0     0     0     0     0     0     0     0     0     0     0     0     0     0     0     0     0     0     0     0     0     0     0     0     0     0     0     0     0     0     0     0     0     0     0     0     0     0     0     0     0     0     0     0     0     0     0     0     0     0     0     0     0     0     0     0     0     0     0     0     0     0     0     0     0     0     0     0     0     0     0     0     0     0     0     0     6     0     9     7    11    11    11    10    11    14    13    14    13     9    12    11    11     9    11     8    14    20    25    25    23    21    24    23    25    26    21    19    21    30    34    33    32    36    38    38    42    46    54    53    58    59    61    67    76    81    81    90    90    92    95    97    97    93    99   103   105   107   109   111   107   104   105   108   116   118   122   122   129   129   131   124   116    97    71    61    59    57    53    49    45    43    40    34    29    28    29    31    31    37    35    35    33    28    28    29    29    26    27    28    28    30    29    26    28    30    36    33    26    26    28    25    29    34    44    55    57    51    51    62    58    54    59    65    70    74    79    78
0     0     0     0     0     0     0     0     0     0     0     0     0     0     0     0     0     0     0     0     0     0     0     0     0     0     0     0     0     0     0     0     0     0     0     0     0     0     0     0     0     0     0     0     0     0     0     0     0     0     0     0     0     0     0     0     0     0     0     0     0     0     0     0     0     0     0     0     0     0     0     0     0     0     0     0     0     0     0     0     0     0     0     0     0     0     0     0     0     0     0     0     0     0     0     0     0     0     0     0     0     0     0     0     0     0     0     0     0     0     0     0     0     0     0     0     0     0     0     6     8     5    10    10    11    12    12    13    12    14    12    12    13    10    13    13    11    10    10    13    20    24    19    14    20    24    24    25    20    15    21    26    29    30    30    30    33    32    33    37    45    43    51    52    55    58    62    74    80    81    85    85    88    89    85    79    93    97   102   105   107   108   106   100   100   110   111   114   120   123   127   137   130   133   124   104    90    74    66    62    59    55    51    45    40    35    33    27    24    24    27    32    36    32    28    26    27    26    28    28    27    25    25    28    28    27    30    34    35    35    29    28    29    25    32    30    43    61    62    55    55    53    51    54    60    67    67    67    74    80
0     0     0     0     0     0     0     0     0     0     0     0     0     0     0     0     0     0     0     0     0     0     0     0     0     0     0     0     0     0     0     0     0     0     0     0     0     0     0     0     0     0     0     0     0     0     0     0     0     0     0     0     0     0     0     0     0     0     0     0     0     0     0     0     0     0     0     0     0     0     0     0     0     0     0     0     0     0     0     0     0     0     0     0     0     0     0     0     0     0     0     0     0     0     0     0     0     0     0     0     0     0     0     0     0     0     0     0     0     0     0     0     0     0     0     0     0     0     0     6     7     9     9    10     8     9    11    11    10    12    11    11    11    11    12    16    14    12    13    12    13    16    15    13    13    19    20    18    17    13    16    19    25    29    27    25    28    28    26    30    42    38    40    41    51    59    60    68    70    71    78    80    82    84    76    77    86    98    98    99   102   104   103   102   105   105   106   110   116   122   127   130   130   127   119   114   105    88    75    66    64    61    54    47    42    39    36    31    28    29    31    36    36    34    30    29    29    29    30    30    26    24    23    26    26    27    28    29    29    28    28    31    31    30    36    37    48    61    61    55    46    44    46    50    52    57    62    67    75    81
0     0     0     0     0     0     0     0     0     0     0     0     0     0     0     0     0     0     0     0     0     0     0     0     0     0     0     0     0     0     0     0     0     0     0     0     0     0     0     0     0     0     0     0     0     0     0     0     0     0     0     0     0     0     0     0     0     0     0     0     0     0     0     0     0     0     0     0     0     0     0     0     0     0     0     0     0     0     0     0     0     0     0     0     0     0     0     0     0     0     0     0     0     0     0     0     0     0     0     0     0     0     0     0     0     0     0     0     0     0     0     0     0     0     0     0     0     0     0     7     5     6     7     7     9     8    11    10    11    13    13    13    10    11    12    13    15    15    13    11    11     7     8     9     9    14    15    13    13    11    16    19    24    25    24    24    25    23    23    26    32    28    32    35    40    48    55    54    59    62    72    75    77    81    80    75    81    87    89    88    91    92    93    97   101   104   105   107   112   120   123   129   127   124   119   118   117    99    83    68    64    62    58    51    48    44    37    33    31    34    39    36    32    27    24    27    28    27    28    27    28    24    21    22    21    24    29    28    24    22    27    29    30    32    32    40    45    55    51    44    40    43    46    50    52    56    63    70    76    80
0     0     0     0     0     0     0     0     0     0     0     0     0     0     0     0     0     0     0     0     0     0     0     0     0     0     0     0     0     0     0     0     0     0     0     0     0     0     0     0     0     0     0     0     0     0     0     0     0     0     0     0     0     0     0     0     0     0     0     0     0     0     0     0     0     0     0     0     0     0     0     0     0     0     0     0     0     0     0     0     0     0     0     0     0     0     0     0     0     0     0     0     0     0     0     0     0     0     0     0     0     0     0     0     0     0     0     0     0     0     0     0     0     0     0     0     0     0     0     9     6     6     8     8     9    12     8    10    12    12    11    11    12    12    12    10    12    15    13    12     8     5     6     9    10    14    14    13    11    11    14    20    25    25    26    24    20    17    17    21    24    25    28    30    29    30    38    44    54    51    64    70    75    79    77    79    82    77    76    75    74    79    75    81    91    99   103   107   113   117   118   121   121   120   117   118   116    99    87    69    65    65    61    56    53    51    39    39    38    40    38    36    34    28    22    25    28    29    29    27    31    26    24    25    24    28    33    31    26    23    26    27    27    37    31    36    41    49    44    41    40    42    47    48    55    57    66    73    78    84
0     0     0     0     0     0     0     0     0     0     0     0     0     0     0     0     0     0     0     0     0     0     0     0     0     0     0     0     0     0     0     0     0     0     0     0     0     0     0     0     0     0     0     0     0     0     0     0     0     0     0     0     0     0     0     0     0     0     0     0     0     0     0     0     0     0     0     0     0     0     0     0     0     0     0     0     0     0     0     0     0     0     0     0     0     0     0     0     0     0     0     0     0     0     0     0     0     0     0     0     0     0     0     0     0     0     0     0     0     0     0     0     0     0     0     0     0     0     0     0     6     6     7     9     9    10     8    10    11    11    13    12    11    11    11    10    14    12    11     9     8     6     6     8    11    12    14    14    13    14    21    26    28    27    28    28    23    16    15    17    20    22    26    29    26    27    30    40    41    41    48    54    67    67    71    75    76    70    63    64    67    64    66    80    83    89    92    98   105   113   109   111   110   109   111   115   108   103    90    76    71    68    62    58    53    53    46    49    51    47    42    39    37    31    28    25    25    27    29    29    30    29    29    31    34    31    33    29    28    26    27    27    28    33    31    34    36    42    39    38    40    42    43    48    51    59    70    80    87    92
0     0     0     0     0     0     0     0     0     0     0     0     0     0     0     0     0     0     0     0     0     0     0     0     0     0     0     0     0     0     0     0     0     0     0     0     0     0     0     0     0     0     0     0     0     0     0     0     0     0     0     0     0     0     0     0     0     0     0     0     0     0     0     0     0     0     0     0     0     0     0     0     0     0     0     0     0     0     0     0     0     0     0     0     0     0     0     0     0     0     0     0     0     0     0     0     0     0     0     0     0     0     0     0     0     0     0     0     0     0     0     0     0     0     0     0     0     0     0     0     7     6     7     9     9    11    11    12    13    11    12    12    12    11    11    10    13     9    11     8     7     6     7     8     9    11    13    15    15    22    26    28    27    27    34    29    27    19    14    14    15    21    25    29    27    29    27    38    38    35    38    44    56    58    62    68    69    62    55    55    62    64    64    71    74    79    82    84    92    99   102    99    99    95    95    97    97    99    96    86    74    63    59    54    53    55    54    50    54    53    50    45    38    35    33    29    27    27    28    32    34    29    30    32    35    35    32    33    30    27    26    25    33    40    37    37    41    40    42    34    38    42    43    47    52    63    76    83    86    88
0     0     0     0     0     0     0     0     0     0     0     0     0     0     0     0     0     0     0     0     0     0     0     0     0     0     0     0     0     0     0     0     0     0     0     0     0     0     0     0     0     0     0     0     0     0     0     0     0     0     0     0     0     0     0     0     0     0     0     0     0     0     0     0     0     0     0     0     0     0     0     0     0     0     0     0     0     0     0     0     0     0     0     0     0     0     0     0     0     0     0     0     0     0     0     0     0     0     0     0     0     0     0     0     0     0     0     0     0     0     0     0     0     0     0     0     0     0     0     0     0     7     9     9     9    11    11    12    13    11    11    11    12    10    10    10     9     9    10     8     6     6     8     8     9    10    10    15    18    22    26    31    26    27    27    28    21    20    18    18    21    20    25    30    29    30    34    31    30    32    32    35    41    46    52    60    64    58    54    53    54    62    63    72    74    75    72    72    78    84    90    91    91    88    88    87    91    94    93    89    81    67    55    50    51    55    59    59    59    58    58    52    53    43    40    37    34    29    27    25    29    32    36    37    36    37    39    36    33    28    27    34    36    30    34    35    36    41    44    40    41    43    48    50    58    71    80    82    80    80
0     0     0     0     0     0     0     0     0     0     0     0     0     0     0     0     0     0     0     0     0     0     0     0     0     0     0     0     0     0     0     0     0     0     0     0     0     0     0     0     0     0     0     0     0     0     0     0     0     0     0     0     0     0     0     0     0     0     0     0     0     0     0     0     0     0     0     0     0     0     0     0     0     0     0     0     0     0     0     0     0     0     0     0     0     0     0     0     0     0     0     0     0     0     0     0     0     0     0     0     0     0     0     0     0     0     0     0     0     0     0     0     0     0     0     0     0     0     0     0     5     7     9     8     8    11    11    11    10    10     9     9    11    10    10    11    10    11    10     9     8     9     9     9    11    12    15    21    19    19    23    25    27    24    24    23    25    21    22    21    22    23    29    33    36    37    30    31    34    30    33    33    34    42    47    56    57    57    53    50    48    57    69    70    70    69    64    58    68    71    79    86    84    83    85    85    89    91    89    87    83    75    62    51    51    58    62    65    65    63    64    60    56    53    52    49    45    39    29    27    31    34    38    36    34    37    41    38    34    30    25    31    38    38    32    33    35    43    46    42    42    47    50    58    67    74    76    81    81    78
0     0     0     0     0     0     0     0     0     0     0     0     0     0     0     0     0     0     0     0     0     0     0     0     0     0     0     0     0     0     0     0     0     0     0     0     0     0     0     0     0     0     0     0     0     0     0     0     0     0     0     0     0     0     0     0     0     0     0     0     0     0     0     0     0     0     0     0     0     0     0     0     0     0     0     0     0     0     0     0     0     0     0     0     0     0     0     0     0     0     0     0     0     0     0     0     0     0     0     0     0     0     0     0     0     0     0     0     0     0     0     0     0     0     0     0     0     0     0     0     0     6     8     8     7     8     8    10     9     9     8     9    10    10    11    15    10    11     8     6     5     8    10    11    14    16    18    19    17    19    21    27    27    25    22    22    22    20    22    22    23    26    29    32    33    28    24    27    32    34    34    35    31    29    32    41    50    49    43    48    49    56    62    63    62    64    65    62    60    66    73    76    77    79    82    86    88    89    90    89    88    81    75    65    62    61    64    66    69    68    64    65    64    63    63    60    57    51    43    41    39    39    40    34    35    40    41    41    33    28    28    34    42    43    34    36    40    44    47    48    48    51    56    64    73    77    78    80    79    79
0     0     0     0     0     0     0     0     0     0     0     0     0     0     0     0     0     0     0     0     0     0     0     0     0     0     0     0     0     0     0     0     0     0     0     0     0     0     0     0     0     0     0     0     0     0     0     0     0     0     0     0     0     0     0     0     0     0     0     0     0     0     0     0     0     0     0     0     0     0     0     0     0     0     0     0     0     0     0     0     0     0     0     0     0     0     0     0     0     0     0     0     0     0     0     0     0     0     0     0     0     0     0     0     0     0     0     0     0     0     0     0     0     0     0     0     0     0     0     0     3     6     8     7     7     7     6    12    11    10     8    10    12    13    12     9    11     7     8     6     6     8    10    14    18    14    20    16    16    20    22    24    28    25    23    21    19    20    16    23    23    25    30    31    26    24    27    27    28    33    32    33    29    26    26    31    34    37    34    42    44    51    55    55    57    61    64    60    63    69    72    73    73    75    81    86    92    94    97    97    99    94    86    82    77    70    68    71    69    67    64    62    60    63    64    66    56    54    56    54    47    41    39    31    31    37    42    45    35    33    32    35    37    39    36    42    41    46    53    54    56    60    65    68    72    76    75    78    79    80
0     0     0     0     0     0     0     0     0     0     0     0     0     0     0     0     0     0     0     0     0     0     0     0     0     0     0     0     0     0     0     0     0     0     0     0     0     0     0     0     0     0     0     0     0     0     0     0     0     0     0     0     0     0     0     0     0     0     0     0     0     0     0     0     0     0     0     0     0     0     0     0     0     0     0     0     0     0     0     0     0     0     0     0     0     0     0     0     0     0     0     0     0     0     0     0     0     0     0     0     0     0     0     0     0     0     0     0     0     0     0     0     0     0     0     0     0     0     0     0     0     7     8     8     8     9     9    13    12    12    11     9    12    13     9    12     7     7     9     9    10     9    10    12    11    14    18    14    15    18    21    20    22    18    15    14    14    13    13    19    21    28    31    29    26    22    22    29    34    30    28    31    29    26    25    29    32    35    37    40    46    50    52    52    54    58    60    63    69    76    77    77    77    79    82    88    94    96    97    98    99    99    91    85    86    75    72    74    72    73    71    68    71    66    64    63    58    57    57    56    51    44    39    32    28    33    40    45    36    33    33    36    39    43    39    46    45    52    57    56    59    63    64    68    70    77    80    81    80    81
0     0     0     0     0     0     0     0     0     0     0     0     0     0     0     0     0     0     0     0     0     0     0     0     0     0     0     0     0     0     0     0     0     0     0     0     0     0     0     0     0     0     0     0     0     0     0     0     0     0     0     0     0     0     0     0     0     0     0     0     0     0     0     0     0     0     0     0     0     0     0     0     0     0     0     0     0     0     0     0     0     0     0     0     0     0     0     0     0     0     0     0     0     0     0     0     0     0     0     0     0     0     0     0     0     0     0     0     0     0     0     0     0     0     0     0     0     0     0     0     0     6     7     9     9    10    10    11    12     9    10    11    12    13    10    13    12     8    10    13    14    15    14    14    14    15    14    13    14    13    15    15    16    13    12    14    14    13    14    18    23    25    26    25    23    21    22    28    29    26    27    31    31    30    26    28    33    37    36    31    42    43    48    50    55    58    61    69    79    83    80    80    79    82    89    92    98    97    97    96    94    91    87    87    87    85    83    82    84    76    75    81    82    70    71    67    60    59    60    56    53    47    39    34    28    30    36    38    39    39    38    38    39    45    45    51    48    51    50    50    51    57    60    66    68    74    79    83    81    81
0     0     0     0     0     0     0     0     0     0     0     0     0     0     0     0     0     0     0     0     0     0     0     0     0     0     0     0     0     0     0     0     0     0     0     0     0     0     0     0     0     0     0     0     0     0     0     0     0     0     0     0     0     0     0     0     0     0     0     0     0     0     0     0     0     0     0     0     0     0     0     0     0     0     0     0     0     0     0     0     0     0     0     0     0     0     0     0     0     0     0     0     0     0     0     0     0     0     0     0     0     0     0     0     0     0     0     0     0     0     0     0     0     0     0     0     0     0     0     0     0     0     4     7     8    13    11    10    10    10    11    12    11    11    12    12    12     8    11    15    16    17    16    14    14    13    14    12    15    14    15    11    13    14    15    15    17    16    15    14    16    14    15    13    15    15    16    21    24    26    29    33    35    34    32    30    32    37    36    34    37    44    48    49    53    59    71    84    85    83    84    85    85    86    92    95   101   103   105   102   102    97    93    89    87    88    91    92    94    85    79    86    85    77    76    70    62    58    55    58    50    53    46    38    36    37    38    40    43    39    37    39    38    44    44    53    54    53    51    51    49    54    59    66    71    74    79    83    81    78
0     0     0     0     0     0     0     0     0     0     0     0     0     0     0     0     0     0     0     0     0     0     0     0     0     0     0     0     0     0     0     0     0     0     0     0     0     0     0     0     0     0     0     0     0     0     0     0     0     0     0     0     0     0     0     0     0     0     0     0     0     0     0     0     0     0     0     0     0     0     0     0     0     0     0     0     0     0     0     0     0     0     0     0     0     0     0     0     0     0     0     0     0     0     0     0     0     0     0     0     0     0     0     0     0     0     0     0     0     0     0     0     0     0     0     0     0     0     0     0     0     0     5     7     8    13     8    12    12    12    14    13    12    11     7    13    12     8     9    13    15    15    15    13    12    14    14    12    11    11    14    13    16    17    18    19    18    17    14    10    11    11    14    14    16    18    19    21    21    20    25    32    38    37    34    32    35    40    38    40    43    50    52    51    56    66    77    82    85    84    83    88    89    89    93   100   106   111   115   116   110   105    94    91    83    90    95   100   104   102    92    93    87    81    76    76    71    66    60    54    51    59    52    46    44    40    39    45    41    38    37    43    42    41    43    51    52    52    51    51    52    57    62    68    73    74    77    80    77    77
0     0     0     0     0     0     0     0     0     0     0     0     0     0     0     0     0     0     0     0     0     0     0     0     0     0     0     0     0     0     0     0     0     0     0     0     0     0     0     0     0     0     0     0     0     0     0     0     0     0     0     0     0     0     0     0     0     0     0     0     0     0     0     0     0     0     0     0     0     0     0     0     0     0     0     0     0     0     0     0     0     0     0     0     0     0     0     0     0     0     0     0     0     0     0     0     0     0     0     0     0     0     0     0     0     0     0     0     0     0     0     0     0     0     0     0     0     0     0     0     0     0     8     6     7    11     9     8    11    16    13     8     9    11    10    10    10    11     9    11    13    11    14    12    12    11    14    11    12    13    13    13    18    18    18    18    18    19    18    15    15    20    18    19    22    23    22    25    21    20    26    35    36    39    35    32    37    41    38    40    47    49    50    50    58    69    76    77    78    83    87    93    97    96    97   105   112   116   119   118   116   110   103    92    89    84    90   100   106   103    98    95    89    85    79    76    78    69    62    59    56    52    49    51    46    42    38    41    35    31    32    37    38    44    47    56    54    54    54    60    64    61    63    67    68    72    74    72    74    78
0     0     0     0     0     0     0     0     0     0     0     0     0     0     0     0     0     0     0     0     0     0     0     0     0     0     0     0     0     0     0     0     0     0     0     0     0     0     0     0     0     0     0     0     0     0     0     0     0     0     0     0     0     0     0     0     0     0     0     0     0     0     0     0     0     0     0     0     0     0     0     0     0     0     0     0     0     0     0     0     0     0     0     0     0     0     0     0     0     0     0     0     0     0     0     0     0     0     0     0     0     0     0     0     0     0     0     0     0     0     0     0     0     0     0     0     0     0     0     0     0     0     9     8    10    12    10     8     9    13    13    10     8     9     9     7    10    13    12     7     9    13    12    12    12    11    13    12    15    14    13    17    19    23    20    22    19    20    19    18    19    19    23    25    28    25    25    24    20    22    24    32    35    37    33    30    36    36    39    45    51    51    51    59    67    73    75    73    76    81    87    93    99   104   107   118   125   128   129   122   119   111   112   103    91    89    99   106   109   106   107    95    91    89    87    82    83    72    67    64    61    60    58    61    54    49    40    36    32    29    31    36    37    45    48    50    52    53    53    60    66    61    63    66    67    69    71    69    71    77
0     0     0     0     0     0     0     0     0     0     0     0     0     0     0     0     0     0     0     0     0     0     0     0     0     0     0     0     0     0     0     0     0     0     0     0     0     0     0     0     0     0     0     0     0     0     0     0     0     0     0     0     0     0     0     0     0     0     0     0     0     0     0     0     0     0     0     0     0     0     0     0     0     0     0     0     0     0     0     0     0     0     0     0     0     0     0     0     0     0     0     0     0     0     0     0     0     0     0     0     0     0     0     0     0     0     0     0     0     0     0     0     0     0     0     0     0     0     0     0     0     0    10     8    12    15    10     9     7    11    13    11     9     8     8     9    12    14    11     7     7    10    12    13    15    12    11    10    14    16    18    22    25    26    25    23    22    20    23    24    23    25    29    31    32    28    24    23    22    17    23    29    36    33    29    29    36    41    43    49    57    61    62    68    72    75    77    76    83    88    92    96   101   109   113   121   127   132   135   133   124   117   114   108   106   106   104   114   112   106   102    87    90    87    82    85    81    75    70    66    67    65    68    66    61    55    55    42    35    32    35    36    42    51    54    50    49    52    52    57    61    64    65    68    69    68    68    66    70    75
0     0     0     0     0     0     0     0     0     0     0     0     0     0     0     0     0     0     0     0     0     0     0     0     0     0     0     0     0     0     0     0     0     0     0     0     0     0     0     0     0     0     0     0     0     0     0     0     0     0     0     0     0     0     0     0     0     0     0     0     0     0     0     0     0     0     0     0     0     0     0     0     0     0     0     0     0     0     0     0     0     0     0     0     0     0     0     0     0     0     0     0     0     0     0     0     0     0     0     0     0     0     0     0     0     0     0     0     0     0     0     0     0     0     0     0     0     0     0     0     0     0     0     5    10    12     6     8    10    13    15    13    11     7     6     6     7    14    12    11     8     7     8    11    12    11    10    13    17    21    26    26    27    25    26    23    20    20    25    25    24    27    28    27    28    26    24    23    25    25    25    28    31    33    32    37    42    49    52    57    67    71    72    72    75    79    80    79    82    89    98    98   101   109   116   125   130   135   141   142   143   138   131   124   118   119   123   121   115   116   101    92    87    83    76    76    78    81    81    76    69    67    63    61    65    61    49    44    43    38    44    41    44    54    57    58    57    53    54    56    62    63    68    70    73    71    71    71    68    71
0     0     0     0     0     0     0     0     0     0     0     0     0     0     0     0     0     0     0     0     0     0     0     0     0     0     0     0     0     0     0     0     0     0     0     0     0     0     0     0     0     0     0     0     0     0     0     0     0     0     0     0     0     0     0     0     0     0     0     0     0     0     0     0     0     0     0     0     0     0     0     0     0     0     0     0     0     0     0     0     0     0     0     0     0     0     0     0     0     0     0     0     0     0     0     0     0     0     0     0     0     0     0     0     0     0     0     0     0     0     0     0     0     0     0     0     0     0     0     0     0     0     0     0    11     8     8     9    11    12    12    10    10     6     5     6     9    15     9     9     7     8     7     7    10    10     8    11    17    18    23    17    18    16    23    20    18    22    25    26    26    27    26    26    28    27    25    25    27    28    28    24    28    32    38    44    52    63    68    71    81    77    75    75    81    87    87    85    83    91   100   108   111   119   129   134   144   150   153   159   159   152   145   140   135   137   142   134   127   119   102    94    88    85    76    76    77    77    74    71    70    68    62    67    64    61    56    51    49    41    39    39    46    47    53    58    61    62    63    63    64    65    64    72    74    71    72    75    75    76
0     0     0     0     0     0     0     0     0     0     0     0     0     0     0     0     0     0     0     0     0     0     0     0     0     0     0     0     0     0     0     0     0     0     0     0     0     0     0     0     0     0     0     0     0     0     0     0     0     0     0     0     0     0     0     0     0     0     0     0     0     0     0     0     0     0     0     0     0     0     0     0     0     0     0     0     0     0     0     0     0     0     0     0     0     0     0     0     0     0     0     0     0     0     0     0     0     0     0     0     0     0     0     0     0     0     0     0     0     0     0     0     0     0     0     0     0     0     0     0     0     0     6     8     8     9     9     8    11    12    10    13    11     8     4     6     7    15     8     8     9     7    10     8     8     8     8     7     8    13    17    16    15    14    19    19    21    20    23    26    29    29    28    29    30    28    29    23    29    30    30    28    31    38    43    49    61    73    81    89    89    87    83    78    85    90    92    91    91    94   107   115   121   127   132   145   153   160   162   164   165   163   159   154   150   157   155   146   129   113   106   100    95    90    78    72    73    76    73    72    70    68    60    63    59    55    49    43    46    42    38    40    40    41    43    48    56    61    66    65    66    65    72    76    71    68    70    73    77    80
0     0     0     0     0     0     0     0     0     0     0     0     0     0     0     0     0     0     0     0     0     0     0     0     0     0     0     0     0     0     0     0     0     0     0     0     0     0     0     0     0     0     0     0     0     0     0     0     0     0     0     0     0     0     0     0     0     0     0     0     0     0     0     0     0     0     0     0     0     0     0     0     0     0     0     0     0     0     0     0     0     0     0     0     0     0     0     0     0     0     0     0     0     0     0     0     0     0     0     0     0     0     0     0     0     0     0     0     0     0     0     0     0     0     0     0     0     0     0     0     0     0     0     6     4     9     9     9    10    12    11    13     9    12     8    10    11    15     9     8     9     7     7     8     7     7     7     6     6     7    11    11    13    14    23    26    27    25    26    28    31    30    28    31    33    30    32    26    28    32    38    39    41    46    49    58    67    79    87    93    91    91    89    91    91    95    99   100   102   106   113   119   126   130   137   146   153   158   163   170   177   180   172   168   168   169   159   149   136   112   109    99    97    90    81    76    75    75    75    74    67    69    66    54    50    46    37    38    43    38    38    44    41    41    41    42    47    53    61    64    69    72    71    69    66    66    69    73    76    81
0     0     0     0     0     0     0     0     0     0     0     0     0     0     0     0     0     0     0     0     0     0     0     0     0     0     0     0     0     0     0     0     0     0     0     0     0     0     0     0     0     0     0     0     0     0     0     0     0     0     0     0     0     0     0     0     0     0     0     0     0     0     0     0     0     0     0     0     0     0     0     0     0     0     0     0     0     0     0     0     0     0     0     0     0     0     0     0     0     0     0     0     0     0     0     0     0     0     0     0     0     0     0     0     0     0     0     0     0     0     0     0     0     0     0     0     0     0     0     0     0     0     0     4    11    10    10     9    11    12    10    10     8    12     9    11    14    13     9     9     9     9     6     4     5     7     7     7     7    12    13    20    22    24    32    28    28    27    28    28    27    28    29    30    30    30    31    33    39    28    33    47    51    54    58    65    77    90    95    95    92    92    93    91    93   102   106   108   113   116   118   120   126   133   142   150   157   162   172   182   183   188   184   177   183   174   163   153   140   107   105   103    94    87    81    76    78    75    73    71    71    71    66    47    45    42    31    36    44    41    43    45    46    44    42    40    40    46    56    62    67    75    73    70    66    66    69    71    78    87
0     0     0     0     0     0     0     0     0     0     0     0     0     0     0     0     0     0     0     0     0     0     0     0     0     0     0     0     0     0     0     0     0     0     0     0     0     0     0     0     0     0     0     0     0     0     0     0     0     0     0     0     0     0     0     0     0     0     0     0     0     0     0     0     0     0     0     0     0     0     0     0     0     0     0     0     0     0     0     0     0     0     0     0     0     0     0     0     0     0     0     0     0     0     0     0     0     0     0     0     0     0     0     0     0     0     0     0     0     0     0     0     0     0     0     0     0     0     0     0     0     0     0     0     6    10     8    13    10    14     9    10     9    20    13    13    15    14    10    10     9     9     9     7     7     7     8     8    11    14    17    20    21    30    30    32    27    25    24    22    20    27    29    32    29    27    30    33    35    34    38    52    59    64    64    68    83    86    93    98    96    99    97    94    95   106   111   112   118   123   126   129   137   142   153   158   171   177   188   184   186   191   190   186   187   172   162   138   122   107   102    99    89    82    79    76    75    72    67    62    62    65    61    54    47    41    37    44    42    44    44    41    40    41    42    41    38    46    52    64    70    74    72    70    69    69    72    75    84    89
0     0     0     0     0     0     0     0     0     0     0     0     0     0     0     0     0     0     0     0     0     0     0     0     0     0     0     0     0     0     0     0     0     0     0     0     0     0     0     0     0     0     0     0     0     0     0     0     0     0     0     0     0     0     0     0     0     0     0     0     0     0     0     0     0     0     0     0     0     0     0     0     0     0     0     0     0     0     0     0     0     0     0     0     0     0     0     0     0     0     0     0     0     0     0     0     0     0     0     0     0     0     0     0     0     0     0     0     0     0     0     0     0     0     0     0     0     0     0     0     0     0     0     0     9     9     9    12    11     7    10    13    15    18    14    13    15    10    10    10    10     8     9     9     9     9     7     8    11    13    17    18    21    24    24    21    21    21    17    17    20    24    29    30    28    24    26    28    35    39    40    52    68    69    71    78    81    90    97   101    99   102   106   108   102   108   118   129   124   126   133   139   144   152   161   176   178   181   183   183   185   190   191   191   183   167   133   119   107   111    98    99    89    81    75    71    69    66    65    62    62    60    56    52    55    38    40    44    46    46    47    49    49    48    49    45    45    49    55    64    66    66    67    68    69    71    74    78    86    90
0     0     0     0     0     0     0     0     0     0     0     0     0     0     0     0     0     0     0     0     0     0     0     0     0     0     0     0     0     0     0     0     0     0     0     0     0     0     0     0     0     0     0     0     0     0     0     0     0     0     0     0     0     0     0     0     0     0     0     0     0     0     0     0     0     0     0     0     0     0     0     0     0     0     0     0     0     0     0     0     0     0     0     0     0     0     0     0     0     0     0     0     0     0     0     0     0     0     0     0     0     0     0     0     0     0     0     0     0     0     0     0     0     0     0     0     0     0     0     0     0     0     0     0    12     8     9    10    12    10    12    12    13    14    14    13    15    16    12    13     9     9     9     9     8     7     6    11    12    14    19    20    20    20    17    16    19    18    17    13    12    18    22    25    23    18    20    23    29    30    40    58    68    77    76    75    87    89    95    99   100   105   108   108   107   114   123   137   137   132   134   140   143   154   163   177   174   183   186   191   193   194   183   180   165   145   114   115   110   106   103    99    93    84    77    71    69    64    62    64    63    62    58    54    54    43    44    45    45    47    50    55    54    55    53    54    55    56    59    61    62    66    68    68    67    71    75    81    86    91
0     0     0     0     0     0     0     0     0     0     0     0     0     0     0     0     0     0     0     0     0     0     0     0     0     0     0     0     0     0     0     0     0     0     0     0     0     0     0     0     0     0     0     0     0     0     0     0     0     0     0     0     0     0     0     0     0     0     0     0     0     0     0     0     0     0     0     0     0     0     0     0     0     0     0     0     0     0     0     0     0     0     0     0     0     0     0     0     0     0     0     0     0     0     0     0     0     0     0     0     0     0     0     0     0     0     0     0     0     0     0     0     0     0     0     0     0     0     0     0     0     0     0     0     7     8     8     9    11     8    10    11    12    12     8     9    10    11    12    12    11    11    10     9     9     6     7    11    16    21    22    28    25    22    20    20    18    18    16    14    14    16    21    22    22    21    22    22    29    37    49    61    67    75    80    90    85    87    90    95   105   105   105   117   114   122   130   133   137   141   140   143   148   153   164   167   174   186   189   191   191   187   165   159   139   125   107   111   104   101    98    92    88    82    79    82    76    70    68    70    73    66    64    62    56    51    48    45    45    46    52    53    53    55    59    62    63    63    63    63    65    69    69    69    68    71    76    80    84    88
0     0     0     0     0     0     0     0     0     0     0     0     0     0     0     0     0     0     0     0     0     0     0     0     0     0     0     0     0     0     0     0     0     0     0     0     0     0     0     0     0     0     0     0     0     0     0     0     0     0     0     0     0     0     0     0     0     0     0     0     0     0     0     0     0     0     0     0     0     0     0     0     0     0     0     0     0     0     0     0     0     0     0     0     0     0     0     0     0     0     0     0     0     0     0     0     0     0     0     0     0     0     0     0     0     0     0     0     0     0     0     0     0     0     0     0     0     0     0     0     0     0     0     0     9     6     8    10    14     6     9    10     9     8     8    10     8    11    10    10    11    10     9     9     9     7     6    11     8    20    24    29    30    27    22    26    25    23    18    17    16    20    22    24    25    26    26    29    36    43    55    60    68    69    87    89    91    94    92   102   107   104   112   115   123   127   132   138   142   145   150   147   145   162   165   174   178   187   191   190   179   159   146   134   122   104   111   101    94    95    93    85    83    80    80    79    77    74    70    70    69    73    72    68    61    55    48    43    42    46    53    56    55    57    62    69    69    70    63    64    66    67    67    70    70    71    75    81    81    83
0     0     0     0     0     0     0     0     0     0     0     0     0     0     0     0     0     0     0     0     0     0     0     0     0     0     0     0     0     0     0     0     0     0     0     0     0     0     0     0     0     0     0     0     0     0     0     0     0     0     0     0     0     0     0     0     0     0     0     0     0     0     0     0     0     0     0     0     0     0     0     0     0     0     0     0     0     0     0     0     0     0     0     0     0     0     0     0     0     0     0     0     0     0     0     0     0     0     0     0     0     0     0     0     0     0     0     0     0     0     0     0     0     0     0     0     0     0     0     0     0     0     0     0     8     7     9    11     7     7     7    10    10    10    10    10     7     5    10    10    11    11    11     9     9     7     7    12     9    16    26    30    31    32    28    28    26    25    26    26    27    28    26    24    23    22    27    33    43    45    53    63    73    71    83    86    92    97   104   105   108   109   111   114   120   129   137   142   146   149   149   151   159   167   171   177   177   179   187   180   159   135   120   111   103   103   100    90    89    90    89    85    82    77    75    73    73    73    69    64    62    67    70    67    59    51    42    40    41    50    57    59    56    59    65    71    72    71    66    66    72    78    71    76    75    74    74    72    73    74
0     0     0     0     0     0     0     0     0     0     0     0     0     0     0     0     0     0     0     0     0     0     0     0     0     0     0     0     0     0     0     0     0     0     0     0     0     0     0     0     0     0     0     0     0     0     0     0     0     0     0     0     0     0     0     0     0     0     0     0     0     0     0     0     0     0     0     0     0     0     0     0     0     0     0     0     0     0     0     0     0     0     0     0     0     0     0     0     0     0     0     0     0     0     0     0     0     0     0     0     0     0     0     0     0     0     0     0     0     0     0     0     0     0     0     0     0     0     0     0     0     0     0     0     0     4     7    12     7     8    11    10     9     9    11    10     7     5    10    11    12    13    12    11    10    10     9    11    10    13    21    26    31    35    26    30    30    30    34    34    34    32    28    29    26    28    33    35    46    49    52    65    71    73    78    83    89    96   103   109   110   110   113   116   121   134   138   142   145   146   150   152   157   162   167   177   171   177   166   155   126   112   102    94    95    96    96    89    86    84    86    83    79    75    72    69    69    67    64    59    60    66    73    64    59    49    42    37    43    52    57    60    60    66    72    71    73    75    71    72    76    79    75    78    79    75    73    73    77    77
0     0     0     0     0     0     0     0     0     0     0     0     0     0     0     0     0     0     0     0     0     0     0     0     0     0     0     0     0     0     0     0     0     0     0     0     0     0     0     0     0     0     0     0     0     0     0     0     0     0     0     0     0     0     0     0     0     0     0     0     0     0     0     0     0     0     0     0     0     0     0     0     0     0     0     0     0     0     0     0     0     0     0     0     0     0     0     0     0     0     0     0     0     0     0     0     0     0     0     0     0     0     0     0     0     0     0     0     0     0     0     0     0     0     0     0     0     0     0     0     0     0     0     0     0     0     4    12     7     8     9    12    10     8     9    10     9    10    11    10    12    14    13    12     8    11     9    10     8    13    14    23    32    36    37    35    36    40    48    42    42    42    37    37    36    37    39    40    48    51    55    64    71    76    79    86    88    95   103   112   115   115   118   118   122   136   141   146   147   146   147   146   149   156   161   167   162   146   141   121   105    98    91    88    91    90    87    82    77    77    79    78    77    76    74    72    69    62    58    56    59    64    63    60    55    49    43    40    44    47    50    57    61    66    70    72    76    73    70    71    73    74    74    75    78    75    70    70    71    76
0     0     0     0     0     0     0     0     0     0     0     0     0     0     0     0     0     0     0     0     0     0     0     0     0     0     0     0     0     0     0     0     0     0     0     0     0     0     0     0     0     0     0     0     0     0     0     0     0     0     0     0     0     0     0     0     0     0     0     0     0     0     0     0     0     0     0     0     0     0     0     0     0     0     0     0     0     0     0     0     0     0     0     0     0     0     0     0     0     0     0     0     0     0     0     0     0     0     0     0     0     0     0     0     0     0     0     0     0     0     0     0     0     0     0     0     0     0     0     0     0     0     0     0     0     0     6    13     9     6    10    10    14    10     9    10    13    10    10    10    11    15    13    14     8     9     8    10     9    11    14    17    28    31    35    36    41    44    44    44    46    44    41    43    40    42    46    45    49    47    52    62    72    74    78    82    86    95   104   109   115   118   125   122   122   133   138   140   136   140   141   142   144   148   151   149   140   131   109    95    87    84    83    83    82    80    76    71    67    68    71    71    73    75    74    70    66    60    56    57    61    61    63    61    55    53    45    41    43    44    49    58    60    60    64    68    74    74    71    70    70    71    71    71    75    72    69    73    74    77
0     0     0     0     0     0     0     0     0     0     0     0     0     0     0     0     0     0     0     0     0     0     0     0     0     0     0     0     0     0     0     0     0     0     0     0     0     0     0     0     0     0     0     0     0     0     0     0     0     0     0     0     0     0     0     0     0     0     0     0     0     0     0     0     0     0     0     0     0     0     0     0     0     0     0     0     0     0     0     0     0     0     0     0     0     0     0     0     0     0     0     0     0     0     0     0     0     0     0     0     0     0     0     0     0     0     0     0     0     0     0     0     0     0     0     0     0     0     0     0     0     0     0     0     0     0    10    11    13     6     8     9    11    12    14    13    11    11    10     9     9    12    12    10     9     8     7     9    10     9    11    15    22    30    35    39    45    40    42    45    44    40    39    33    34    40    46    42    42    50    52    59    72    76    76    79    85    85    90   101   115   124   128   127   128   126   133   134   128   134   134   134   135   137   138   129   116    95    89    85    84    85    80    78    77    76    73    67    64    62    64    65    68    64    69    66    65    62    60    59    55    59    61    63    60    58    46    41    45    45    55    58    58    55    59    68    72    74    77    79    76    75    74    72    74    76    79    81    82    80
0     0     0     0     0     0     0     0     0     0     0     0     0     0     0     0     0     0     0     0     0     0     0     0     0     0     0     0     0     0     0     0     0     0     0     0     0     0     0     0     0     0     0     0     0     0     0     0     0     0     0     0     0     0     0     0     0     0     0     0     0     0     0     0     0     0     0     0     0     0     0     0     0     0     0     0     0     0     0     0     0     0     0     0     0     0     0     0     0     0     0     0     0     0     0     0     0     0     0     0     0     0     0     0     0     0     0     0     0     0     0     0     0     0     0     0     0     0     0     0     0     0     0     0     0     0     7     9    10     8     7     6    10     9    12    12    13    16    18    11    10    12    12     9     9     7     7     8     9    10    11     9    18    25    28    32    28    27    32    36    42    41    36    33    33    37    44    43    49    54    54    58    68    74    77    79    74    78    85    87   102   120   129   130   130   130   127   125   121   125   128   129   133   133   128   113    96    85    82    84    84    82    78    76    76    72    72    69    65    61    63    64    62    61    60    61    63    64    63    61    61    62    68    65    60    56    47    45    46    50    56    59    60    60    63    68    73    76    78    81    81    81    79    81    82    85    85    87    89    84
0     0     0     0     0     0     0     0     0     0     0     0     0     0     0     0     0     0     0     0     0     0     0     0     0     0     0     0     0     0     0     0     0     0     0     0     0     0     0     0     0     0     0     0     0     0     0     0     0     0     0     0     0     0     0     0     0     0     0     0     0     0     0     0     0     0     0     0     0     0     0     0     0     0     0     0     0     0     0     0     0     0     0     0     0     0     0     0     0     0     0     0     0     0     0     0     0     0     0     0     0     0     0     0     0     0     0     0     0     0     0     0     0     0     0     0     0     0     0     0     0     0     0     0     0     0     7     8    13     9    11    10    12    10    11    10     9     9     9    14    14    14    12    10     7     7     8     8     8     8     9    10    13    18    17    18    19    19    22    29    37    39    37    36    36    38    41    42    47    58    58    59    65    71    75    78    77    80    88    87    98   119   125   130   131   124   121   114   118   124   128   133   131   127   116    99    87    80    77    79    79    76    72    70    72    69    66    66    66    65    65    64    61    57    57    60    60    58    58    59    62    73    77    75    64    65    53    51    52    54    56    57    60    64    68    72    78    81    82    85    85    85    88    88    90    93    93    93    94    92
0     0     0     0     0     0     0     0     0     0     0     0     0     0     0     0     0     0     0     0     0     0     0     0     0     0     0     0     0     0     0     0     0     0     0     0     0     0     0     0     0     0     0     0     0     0     0     0     0     0     0     0     0     0     0     0     0     0     0     0     0     0     0     0     0     0     0     0     0     0     0     0     0     0     0     0     0     0     0     0     0     0     0     0     0     0     0     0     0     0     0     0     0     0     0     0     0     0     0     0     0     0     0     0     0     0     0     0     0     0     0     0     0     0     0     0     0     0     0     0     0     0     0     0     0     3     9    10    14    10     8     8     7     7     9    10    10     9    10    10    10    11    15    10    10     8     7     8     8     9     8    10    12    14    15    13    13    13    15    22    31    37    38    41    40    37    37    41    38    41    56    59    66    70    72    79    85    88    93    97   101   110   115   118   119   113   116   112   123   131   130   131   124   114   101    89    81    79    77    77    76    73    71    66    63    61    59    61    61    61    65    54    57    56    59    58    54    52    52    55    62    71    73    62    68    62    59    59    57    57    57    59    62    71    78    80    81    82    83    87    88    91    92    91    92    96    96    94    95    94
0     0     0     0     0     0     0     0     0     0     0     0     0     0     0     0     0     0     0     0     0     0     0     0     0     0     0     0     0     0     0     0     0     0     0     0     0     0     0     0     0     0     0     0     0     0     0     0     0     0     0     0     0     0     0     0     0     0     0     0     0     0     0     0     0     0     0     0     0     0     0     0     0     0     0     0     0     0     0     0     0     0     0     0     0     0     0     0     0     0     0     0     0     0     0     0     0     0     0     0     0     0     0     0     0     0     0     0     0     0     0     0     0     0     0     0     0     0     0     0     0     0     0     0     0     0    10    12    15     9     8     7    11     6     9     9     6     7     8     8    10    12    11    13     9     8     7     7     8    10     9     9    10    10    14    15    16    15    15    21    28    32    31    35    36    33    32    36    33    34    49    56    66    72    73    80    88    92    91    94   100   103   105   106   104   104   111   111   126   127   131   124   115   101    85    77    75    74    73    71    67    65    63    61    58    54    53    58    58    56    58    58    57    54    59    54    50    46    46    50    63    65    67    61    65    61    57    57    57    58    56    58    62    70    80    85    85    85    87    92    93    95    95    93    92    95    98    97    96    97
0     0     0     0     0     0     0     0     0     0     0     0     0     0     0     0     0     0     0     0     0     0     0     0     0     0     0     0     0     0     0     0     0     0     0     0     0     0     0     0     0     0     0     0     0     0     0     0     0     0     0     0     0     0     0     0     0     0     0     0     0     0     0     0     0     0     0     0     0     0     0     0     0     0     0     0     0     0     0     0     0     0     0     0     0     0     0     0     0     0     0     0     0     0     0     0     0     0     0     0     0     0     0     0     0     0     0     0     0     0     0     0     0     0     0     0     0     0     0     0     0     0     0     0     0     0     6     6     8    11    10     9     7     8    10     9     8     8     8     9    10    12    12    15    11     6     7     8     9    10    10     9     9     9    11    16    16    14    14    18    24    28    24    24    25    28    31    25    32    38    55    57    67    70    72    77    80    86    88    95    95   100    98    96   100    93   100   105   119   126   122   115   106    91    76    70    70    69    69    66    62    59    59    59    56    49    46    50    51    50    51    48    47    49    53    48    49    43    43    52    59    64    69    63    65    60    54    51    54    53    54    57    61    67    73    81    85    84    87    89    92    96    93    90    91    92    94    95    95    94
0     0     0     0     0     0     0     0     0     0     0     0     0     0     0     0     0     0     0     0     0     0     0     0     0     0     0     0     0     0     0     0     0     0     0     0     0     0     0     0     0     0     0     0     0     0     0     0     0     0     0     0     0     0     0     0     0     0     0     0     0     0     0     0     0     0     0     0     0     0     0     0     0     0     0     0     0     0     0     0     0     0     0     0     0     0     0     0     0     0     0     0     0     0     0     0     0     0     0     0     0     0     0     0     0     0     0     0     0     0     0     0     0     0     0     0     0     0     0     0     0     0     0     0     0     0     7     5     8     9    10    12     8     7     8     7     8     5     6     8     9     9    11    12    14     9     7     7     9     9    10     8     8     8    12    15    17    16    16    14    17    20    21    22    24    24    23    25    33    41    55    58    65    67    67    71    70    76    77    84    94    95    93    89    88    83    89    96   110   112   114   104    95    85    68    63    65    66    64    59    55    57    57    58    56    49    44    45    46    48    50    52    52    45    46    44    47    42    43    51    59    64    59    56    55    55    51    50    51    49    51    55    62    67    70    77    83    85    86    85    86    90    95    94    93    94    96    89    89    93
0     0     0     0     0     0     0     0     0     0     0     0     0     0     0     0     0     0     0     0     0     0     0     0     0     0     0     0     0     0     0     0     0     0     0     0     0     0     0     0     0     0     0     0     0     0     0     0     0     0     0     0     0     0     0     0     0     0     0     0     0     0     0     0     0     0     0     0     0     0     0     0     0     0     0     0     0     0     0     0     0     0     0     0     0     0     0     0     0     0     0     0     0     0     0     0     0     0     0     0     0     0     0     0     0     0     0     0     0     0     0     0     0     0     0     0     0     0     0     0     0     0     0     0     0     0     0     5     8     9    10     8     8     6     7     7     6     7     8     9     9     9    11    12    18    12     9     6     8     9    10    10     8     8    10    10    13    18    15    14    17    20    23    23    24    25    23    24    36    40    51    55    61    65    64    63    63    69    75    81    87    91    91    94    86    81    84    96   100   102   104    97    87    76    64    61    60    60    57    53    49    51    52    53    53    47    44    42    40    42    44    46    41    44    39    37    39    39    40    43    47    47    48    42    42    44    46    47    47    46    50    60    65    67    70    75    79    83    85    85    83    90    94    95    95    98   103    96    94    98
0     0     0     0     0     0     0     0     0     0     0     0     0     0     0     0     0     0     0     0     0     0     0     0     0     0     0     0     0     0     0     0     0     0     0     0     0     0     0     0     0     0     0     0     0     0     0     0     0     0     0     0     0     0     0     0     0     0     0     0     0     0     0     0     0     0     0     0     0     0     0     0     0     0     0     0     0     0     0     0     0     0     0     0     0     0     0     0     0     0     0     0     0     0     0     0     0     0     0     0     0     0     0     0     0     0     0     0     0     0     0     0     0     0     0     0     0     0     0     0     0     0     0     0     0     0     0     8     7     8    10     9     8     7     6     9     9    11    11     9     9    10     9     7     8     8    11     9     8     9     9    10     7     7     7     7     7    13    13    12    13    16    21    23    23    22    26    27    32    40    46    51    53    52    51    51    55    60    68    70    83    91    89    89    86    83    87    91    89    88    89    87    79    64    58    53    57    53    51    49    48    49    51    50    45    43    41    37    37    41    40    37    39    36    33    32    33    34    33    32    32    37    37    36    37    39    43    44    43    46    51    60    69    73    73    76    76    81    87    85    83    89    93    96    96    99   106   102   100    97
0     0     0     0     0     0     0     0     0     0     0     0     0     0     0     0     0     0     0     0     0     0     0     0     0     0     0     0     0     0     0     0     0     0     0     0     0     0     0     0     0     0     0     0     0     0     0     0     0     0     0     0     0     0     0     0     0     0     0     0     0     0     0     0     0     0     0     0     0     0     0     0     0     0     0     0     0     0     0     0     0     0     0     0     0     0     0     0     0     0     0     0     0     0     0     0     0     0     0     0     0     0     0     0     0     0     0     0     0     0     0     0     0     0     0     0     0     0     0     0     0     0     0     0     0     0     0     0     6     7     6    13     9     7     7     7    10    10    10     9    10     9     8     8     8     8     7    11     8     8     9     9     8     9     6     7     8     8     8    10    11    14    12    13    14    16    19    24    31    35    38    37    39    42    43    46    44    49    57    65    73    79    86    85    84    86    90    89    87    87    77    81    70    69    62    59    54    48    44    45    47    45    42    44    41    39    37    37    36    34    31    28    28    27    24    22    22    22    23    24    24    24    27    32    33    34    37    42    45    47    48    55    62    67    69    72    77    82    84    84    84    87    87    93    95    99   105   109   101   100
