ncols 250
nrows 63
xllcorner 105.971375
yllcorner 1660.233765
cellsize 25
NODATA_value -9999
3     6     8     9    11    11     3     7     8     7    13    18    11     7    11    12    12    12    25    25    25    19    10     6     6     9     5     4     5     8     6     3     9     2     4     6    10     7     6     3     3     3     3     3     2    10     5     3     2     3     3     3     4     4     8     8    11     8     8     6     4     5     5     5     4     2     2     4     8     5     3     3     3     1     4     8    13    10     9     3     4     5     7     6    18    18    15    10    12    10     7     4     8    12     2     4     4     3     3     3     7     5     3     4     2     2     3     3     3     2     3     4     2     4     4     6     5     4     7     9    11     5     6     5     8     9     8     7     5     5     7    11    11     3     1     4     3     3     3     5     4     4     9     5     1     1     2     2     3     5     4     2     2     4     7     9    10     7     2     9    13    11     8     5     7     9    10     7     7     7     9     6     6     5     9     6     6     5     7    11    12    11    12    10     8     6     8     6     7     7     6     9     7    11    12    11     6     5     4     4     4     4     4     6     4     7     7     7     9    10    10    12    12     8     7     9     7     5     5     7     8    10    14    17    12    16    12     8     7     6     5     4     4     4     4     4     3     4     4     5     6     7     7    11     8     7     7     7     7     7
2     5     4    15     9     2     2     5     3     4    11    15     1     5    11    10    13     6    16    22    21    17     5     5     4     6     3     1     5     7     7     2     1     3     5     5    13     4     4     1     4     3     3     3    13     8     5     3     3     2     3     3     4     7     6     4     5     7     7     7     7     6     6     6     3     2     4     4     5     4     2     3     3     3     3     4     6    11     9     3     4     4     7     4    15    22    18    16    11    10     5     8     9     7    14    15     8    15    12    14     6     5     4     4     4     3     5     3     4     3     4     5     7     8    10    10     7     4     6     8     7     5    10     9     9     4     5    14     6     7     4    16    13    10     6     4     3     2     3     3     7    10     6     6     3     4     5     5     3     4     5     7     8     9     9     8     5     5     5    13    12     7     6     8     7     7     9     7     8     9    10     7     8     6     8     8     6     4     3     2     3     6     8     5     7     4     4     5     6     5     3     5     4     8     4     5     6     7     7     5     4     5     5     7     5     6     7     8    12     9     9     8     6     8     9     7     9     7     5     6     9    13    16    14    16    12    11     8     5     7     4     5     6     8    10    11     3     4     4     5     6     6     6     8     8     8     5     6     6     7
5     5     5     6     3     2     4     3     1     3    10    16     2     1     4     6     3     4    15    19    15     7     2     4     5     6     5     3     3     4     1     3     2     3     4     6     7     5     4     3     5     4     2    10     9     2     2     4     3     1     2     3     6     5     6     6     5     5     5     4     8     4     4     4     4     3     7     7     4     4     4     4     3     3     6     7     7     8     7    15     3     5     5    18    14    16    16    11     5     6     4     7     8    10     8     9    11    14    17    16    15    12     7     5     4     6     8     6     3     6     7     7     7     7     9     6     8    10    10     9     8     7     7     8     7    13     9    19    12    15    16    16    18    18     3     8     8     3     4     6     9     8     8    13    10     8     8     8     4     4     2     8     9    11    10     7     4     3     7     7     6    12    14    18    11     9    16    10     9     9     7     7     8    10    12    15    15    12     4     5     5    10    14    14    11     6     5     5     3     6    12     7     6     5     5     4     5     5     5     5     3     5     5     6     4     6     8    10    11    11    10     8     8     7     9     6     7     5     7     7     8    10    11    12    10     9     9     6     6     6     8     7     5     5     4     4     4     3    11     5     6     5     8     6     5     3     3     4     6     7
7     6     3     7     3     4     1     1     2     2    10    16     6     4     3     4     2     6    12    19     6     5     2     2     4     5     2     2     3     2     2     2     2     9     8     8     7     3     4     4     4     4     3     6     8     5     4     3     3     1     3     3     4     4     6     7     6     4     4     3     6     3     4     5     3     4     7     6     4     2     5     4     4     3     8     7     7     4     9     9    12     9    18    17    11    13     9     6     6     4     9     7    12    12    12    12    14    16    17    16    12     8     5     4     6     7     8     7     5     7    11     5     2     9    13     6     8     7     7     7    12     8     8     8    11     8     9    12    14    15    16    13    19    24    20    12     5     3     4     7    12     7     7     7     7     7     7    12    12    12    10    10    11    11    10    12    14    11    10     7     6     9    13    13    14    12    11     9    10     9     7     7     6     8    11    16    15    12    10    10     9     9    14    18    13     5     5     5     5     6    12    11     9     6     6     4     4     4     4     4     4     4     4     4     5     4     6     9     9    12    11     6     7     8     8    10     6     5     5     7     9     6     6    13     9    10     7     8     8    12     7     8     7     5     4     4     4     4     5     8     9     6     8     6     5     4     4     4     4     6
11     5     7     8     9     3     3     2     2     2    11    15     6     4     3     3     4     5     9     9     5     3     2     3     2     4     3     3     3     5     2     3     5     8     8     9     8     5     3     3     4     4     4     6     2     3     3     4     2     4     4     4     4     4     6     7     6     7     4     5     4     3     4     4     3     4     4     6     4     5     3     4     3     5     4     7     5     4     5     8     8     9    12    17     9     8     9     4     3     5     5    12    12    11    11    11    11    11    11    19    12    12    12     8     8    10     8     6    14     9     8     7     6    13    12     8    17     7     7     7     7     7     7     7     7     7     7    15    12    19    20    16    13    21    24    17     9     2     8    11    13     7     7     7     7     7     7     7     7    13    10     9     9    12    14    12    13    13     8     5     5     8     9     8    12    11     8    12    11    10     7     7     8     7     9    16    14    10    12    10    11    10    11     9    14    11     6     5     4     4    12    10     7     5     5     8     7     5     6     5     4     5     5     5     7     7     7     7     9     8     6     5     6     6     6     8    10     6     4     4     6     8     7     7     5     8     9    13    11     5     5     8     6     3     3     4     5     5     5     8     8     7     3     5     5     5     3     3     4     6
7     7    13    12     9    11     9     3     1    11     9     1     2     4     4     3     3     5     8     6     4     8     5     2     2     3     4     3     5     5     3     2     3     4    10     8     4     3     4     4     2     3     3    13     6     9     5     5     5     7    10     6     5     5     9     9    14    10     7     6     3     2     2     2     3     3     5     7     6     7     8     6     7     6     3     6     6     6     9    10     6     6     9    10     6     6     5     9    10    16    10    12    11    11    11    11    11    11    11    11    11    11    11     7     7     7     8     8     8     8     8     8     8     8     5    15     7     7     7     7     7     7     7     7     7     7     7     7     7     7     7     7     7     7     8    12    10     8     8     8    10     7     7     7     7     7     7     7     7    10    16     3    14    16    16    10     8     7     8    10     8     8    12     9     8     8    12    13    11    10     8     9     7     8     8     9    11    13    12    10     8     7     5    11    12    10     6     4     5     4    12     5     5     4     5     4     6     4     5     5     5     4     4     5     5     6     8     8    12     8     6     7     7     5     4     5     7     8     5     5     6     7     5     5     5     9     9     7     6     5     5     7     6     5     3     3     6     4     4     5     6     5     4     5     5     6     5     5     5     5
10    13    12     6     8    13    11    15    13    13    15     4     2     3     3     3     3     3     3     3     2     5     6     3     3     5     6     4     4     4     3     3     3     3     4     3     5     4     2     4     6     3     3    12    10     8     4     5     6     9    10     3     7     6    16     7     7    10    11     6     4     3     7     7     5     5     6     7     9     7     4     7     8     8     7     6     5     8     9     6     6     7     6     7     8    14     5     6     9     9    12    15    11    11    11    11    11    11    11    11    11    11    11     7     7     7     7     7     7     7     7     7     7     8     8     8     7     7     7     7     7     7     7     7     7     7     7     7     7     7     7     7     7     7     7     7     7     7     7     7     7     7     7     7     7     7     7     7     7     8     4    18    19    20    20    13     7    11    16    15    11     7     7     7     7     9    12    12    11    10    10    10    10     8     8     8     9    15    13    11     7     6     5     7     6    10    13     4     6     3     6     7     6     6     5     3     6     7     5     6     6     3     6     6     7     6    10    10    15    12    10    10    10     6     5     4     4     5     6     7     7     5     5     5     7     6     7     7     6     4     5     4     7     4     3     3     4     6     8     5     5     4     5     5     5     5     5     5     6     5
19    19    18     8     4    10    14    20    19    15     8     5     2     3     1     3     3     3     3     4     1     1     2     3     2     4     4     3     3     4     2     2     3     4     4     2     8     7     3     1     4     5     5     8     9     5     6     5     4     6     6     5     8    10    17    15     9     8     7    14     9    10     7     5     4     4     7    11    10     8     7     7    12     9    10     7     7     5     9    10    11    10     9    12     7    16    18    23    18    23    27    27    11    11    11    11    11    11    11    11    11    11    11     7     7     7     7     7     7     7     7     7     7     7     7     7     7     7     7     7     7     7     7     7     7     7     7     7     7     7     7     7     7     7     7     7     7     7     7     7     7     7     7     7     7     7     7     7     8     8     8     8    19    27    29    27    25    26    19    16     7     7     7     7    16     8    11     9    11    10    13    11     8     7     6     7     7    12     8     9     9     5     7     6     6     8    13    14    15    14     9     9    10     8     7     8     7     9     8     6     5     5     6     7     8     6    10     8     9     9     9    10     7     7     5     4     4     5     6     7     6     7     6     6     6     6     4     5     5     7     6     4     5     5     4     3     3     6     7     6     4     4     6     6     5     5     6     3     3     6
21    25    27     7     6     6     8    17    15    11    17     7     4     2     2     2     4     4     3     3     2     1     3     3     2     7     6     3     3     4     3     3     3     4     3     2     6     8     8    12     8     6     5    11     7     5     3     6     8     8     5     7     8    11    14    21    14    10     9     7     5    12     9     6     3     8     3     4     5     7     9    12    10    10     8    12     9     7    10    17     5     6    12    19    28    35    34    34    33    29    34    39    11    11    11    11    11    11    11    11    11    11    11     7     7     7     7     7     7     7     7     7     7     7     7     7     7     7     7     7     7     7     7     7     7     7     7     7     7     7     7     7     7     7     7     7     7     7     7     7     7     7     7     7     7     7     7     7     7     7     7     7     7     7     7    28    28    32    24    12     7     7     7     7    19    10     6    10    11    11     9    11    11     9     8     5     6     6     9     8     9    10     8     7    14    15    12    13    17    16    13    14    14    13     8     9     9     7     9     7     4     5     6     7     7     7     6     6     3     7     8     9     5     7     6    11     5     6     4     5     6     6     6     6     5     7     6     5     6     9     8     7     5     6     5     4     4     6     5     6     5     6     7     4     6     6     5     4     4     5
17    23    29     7     4     4     3     8     8    11    14    11    10     7     2     3     4     4     4     4     3     1     2     4     7     8     5     5     3     4     2     2     2     3     3     3     2     7     9    13    11     9    11     8    10     6     9     7     6     6     7     7     7     8    23    20    19    19    11     9     6     6     6     9    10    13    10     7     7    10    14    15    14    18    19    14    15    12    12    24    22    22    27    29    25    30    34    35    33    31    36    11    11    11    11    11    11    11    11    11    11    11    11     7     7     7     7     7     7     7     7     7     7     7     7     7     7     7     7     7     7     7     7     7     7     7     7     7     7     7     7     7     7     7     7     7     7     7     7     7     7     7     7     7     7     7     7     7     7     7     7     7     7     7     7     7     7     7     7     7     7     7     7     7    10    13     9     8    10    12    12    13    12     8     7     8     8     6     9     9     9     9     8     7     8    14    12    13    19    14    11    18    17    11     6    11    10    10     9     9     6     7     7     8     8     6     5     9     5     9    10     7     4    10    11     7     5     8     8     6     7     6     5     5     5     6     5     4     5     5     5     7     7     7     6     4     4     4     5     5     6     6     6     5     6     6     6     6     5     5
13    19    23     2     5     2     6     7     7     7     9    10    14     7     4     3     1     4     6     4     3     1     2     6     8     6     7     7     6     2     4     4     4     4     3     3     1     6     8     9     4    16    10    10    12     6    10    10     6     6     8     7    12    21    21    19    19    19    19    12    12    11    12    19    19    17    23    21    14    20    26    33    37    32    28    28    24    23    20    20    25    21    33    11    11    11    35    31    32    34    20    11    11    11    11    11    11    11    11    11    11    11    11     7     7     7     7     7     7     7     7     7     7     7     7     7     7     7     7     7     7     7     7     7     7     7     7     7     7     7     7     7     7     7     7     7     7     7     7     7     7     7     7     7     7     7     7     7     7     7     7     7     7     7     7     7     7     7     7     7     7     7     7     7     7     7     7     7     8    13    12    14    16    10     8     9    10     9     9     9    10     9     9     8     4     5    13    13    10    11    19    16    17    11    13    13     8     7     9    10     8     8    10     8    10     9     8     7    10    12     8    10     9     6     7     8     8     6     4     6     6     6     5     7     4     4     5     5     4     6     7     6     6     5     5     4     5     5     6     4     5     5     5     5     7     7     7     7     8     7
14    16    13     8     5     4     3     3     4     5     7     9     8     5     2     3     2     6     9     5     3     2     1     2     6     5     7     8     8     6     5     3     5     9     9     4     3     2     3     5     2     6     9    10     7    15    16    12     6     5     5     9    14    21    19    19    19    19    19    19    19    19    19    19    19    19    22    29    14    19    32    36    37    31    25    26    34    30    22    18    25    31    41    11    11    11    11    11    11    11    11    11    11    11    11    11    11    11    11    11    11    11    11     7     7     7     7     7     7     7     7     7     7     7     7     7     7     7     7     7     7     7     7     7     7     7     7     7     7     7     7     7     7     7     7     7     7     7     7     7     7     7     7     7     7     7     7     7     7     7     7     7     7     7     7     7     7     7     7     7     7     7     7     7     7     7     7     7     7     7     7     7     7     7     7    14    16    18     8    11    11     9     9     8     6    17    14    10     9    19    16    19    15    14    13    13    11     7    10     9     7     9    12    10     9     9    10     8    11    12    11     8    11     9     8    10     5     6     5     6     7     6     6     6     8     9     9     4     6     7    10     8     8     7     4     4     5     6     5     4     4     5     6     5     5     7     7     6     8     7
13    15    13    12     9     7     9     7     5     4     6     8     7     6     6     4     2     4     5     4     4     3     2     2     2     4     5     7     8     7     6     3     4     5     7     3     2     4     5     2     8     8     9     9     8    13    15    14     6     8    10    12    21    22    19    19    19    19    19    19    19    19    19    19    19    19    19    21    21    21    28    11    11    14    20    21    29    27    22    27    33    36    40    11    11    11    11    11    11    11    11    11    11    11    11    11    11    11    11    11    11    11    11     7     7     7     7     7     7     7     7     7     7     7     7     7     7     7     7     7     7     7     7     7     7     7     7     7     7     7     7     7     7     7     7     7     7     7     7     7     7     7     7     7     7     7     7     7     7     7     7     7     7     7     7     7     7     7     7     7     7     7     7     7     7     7     7     7     7     7     7     7     7     7     7     7     7     7     7    18    15    14    11     8    13    15    14    17    22    22    17    16    14    14    14    14    12    13    10    10     8    12    17    12     8     7     9     9    16    15    17    15    12    12     9    14    12     8     9    10     6     7     7     8     8    10     6     6     5     6     9    10     7     7     8     8     9     8     7     7     8     8     8     8     8     8     9     9     8     6
15     6    12    15     8     9     7     4     3     4     6     7     6     5     7     5     3     3     4     5     6     3     2     2     2     7     5     6     6     4     6     3     4     3     4     4     6     4     5     7    10    11    12    10     9    11    18     8     7     8    16    19    21    22    19    19    19    19    19    19    19    19    19    19    19    19    19    19    19    20    11    11    11    11    11    11    11    11    11    11    21    33    21    11    11    11    11    11    11    11    11    11    11    11    11    11    11    11    11    11    11    11    11     7     7     7     7     7     7     7     7     7     7     7     7     7     7     7     7     7     7     7     7     7     7     7     7     7     7     7     7     7     7     7     7     7     7     7     7     7     7     7     7     7     7     7     7     7     7     7     7     7     7     7     7     7     7     7     7     7     7     7     7     7     7     7     7     7     7     7     7     7     7     7     7     7     7     7     7    13    19    22    16    15    12    14    16    17    16    21    20    16    14    17    15    14    14    11    10    13    12    14    16    13    11     9    10    14    13    21    22    22    19    14    19    16    14    11    11     9     8     9     9     9     9     8     8     6     6     5    10    13     8    10     8     9    10    10     6     6     7     7     7     7     9    10    13    10     8     9
8     3    10    11     4     8    10     9     8     6    10     5     4     4     6     6     6     5     2     4     2     4     3     2     3     2     3     3     4     3     3     2     4     5     5     6     6     2     5     8     9     9     9     9     9     9     9    14    14    15    18    20    19    19    19    19    19    19    19    19    19    19    19    19    19    19    19    19    19    19    15    11    11    11    11    11    11    11    11    11    11    11    11    11    11    11    11    11    11    11    11    11    11    11    11    11    11    11    11    11    11    11    11     7     7     7     7     7     7     7     7     7     7     7     7     7     7     7     7     7     7     7     7     7     7     7     7     7     7     7     7     7     7     7     7     7     7     7     7     7     7     7     7     7     7     7     7     7     7     7     7     7     7     7     7     7     7     7     7     7     7     7     7     7     7     7     7     7     7     7     7     7     7     7     7     7     7     7    10    14    16    19    18    17    16    16    15    15    18    17    24     7     7     7    19    18    20    16    16    16    12    16    19    18    12    14    11    17    16    19    17    21    20    18    17    15    13    14    15    12     8     9    11    11    11     8     9    10     4     8    11    11     9    10     9     9    10    10     7     7     7    10    11    12    15    10     8     8     7     7
4     5     6    13     5     4     4     5     6     7     6     7     9     7    10     5     5     6     5     6     6     5     3     4     2     3     3     2     4     4     2     4     3     4     4     7    10     7     9     9     8    10     9     7     7    11    15    19    19    19    19    19    19    19    19    19    19    19    19    19    19    19    19    19    19    19    19    19    19    19    19    12    11    11    11    11    11    11    11    11    11    11    11    11    11    11    11    11    11    11    11    11    11    11    11    11    11    11    11    11    11    11    11     7     7     7     7     7     7     7     7     7     7     7     7     7     7     7     7     7     7     7     7     7     7     7     7     7     7     7     7     7     7     7     7     7     7     7     7     7     7     7     7     7     7     7     7     7     7     7     7     7     7     7     7     7     7     7     7     7     7     7     7     7     7     7     7     7     7     7     7     7     7     7     7     7     7     7    12    13    14    15    15    14    14    14    14    13    13    18    20     7     7     7     7    22    20    19    16    17    16    14    16    19    21    14    11    10     8    10     9    10    17    18    21    19    12    13    10     8     6    11    11    12    11     7     7     8     9     9     7     9     9     9     8     8     9     8     9    12    13     9    11    15     7     7     8     7     7     7
5     5     1     5     7     8     8     7    11     8     9    11     9     5     6     6     6     6     9     8     5     4     2     1     4     2     3     3     5     3     1     3     5     8     5     5     7     8     7     8     7     8     8    13    12    19    19    19    19    19    19    19    19    19    19    19    19    19    19    19    19    19    19    19    19    19    19    19    19    19    19    13    11    11    11    11    11    11    11    11    11    11    11    11    11    11    11    11    11    11    11    11    11    11    11    11    11    11    11    11    11    11    11     7     7     7     7     7     7     7     7     7     7     7     7     7     7     7     7     7     7     7     7     7     7     7     7     7     7     7     7     7     7     7     7     7     7     7     7     7     7     7     7     7     7     7     7     7     7     7     7     7     7     7     7     7     7     7     7     7     7     7     7     7     7     7     7     7     7     7     7     7     7     7     7     7     7     7     8    12    12    12    12    12    12    12    12    12    12    12    12     7     7     7     7    22    21    20    13    18    14    13    16    19    19    18     9    11    10    11     9     9    16    20    18    16    15    11    16    15    10    10    11    11    10    10     9    11     7     9    11    11    11     9     9     8     8    13    16    16    15     8     8     8    10     9     9     7     7     7
8     4     6    10     8     7     6     7    14     7     8    10    10     9     7     6     5     5     7     6     6     3     3     2     6     8     5     5     3     6     5     5     4     4     5     5     5     6     9     6    13    24    18    19    19    19    19    19    19    19    19    19    19    19    19    19    19    19    19    19    19    19    19    19    19    19    19    19    19    19    19    12    11    11    11    11    11    11    11    11    11    11    11    11    11    11    11    11    11    11    11    11    11    11    11    11    11    11    11    11    11    11    11     7     7     7     8     7     7     7     7     7     7     7     7     7     7     7     7     7     7     7     7     7     7     7     7     7     7     7     7     7     7     7     7     7     7     7     7     7     7     7     7     7     7     7     7     7     7     7     7     7     7     7     7     7     7     7     7     7     7     7     7     7     7     7     7     7     7     7     7     7     7     7     7     7     7     7     7     8     8     8     9    12    12    12    12    12    12     9     7     7     7     7     7    28    21    21    18    16    11    11    18    18    20    20    10    10    12    12    10    17    15    16    20    17    15    15    18    19    19    16    14    11    11    10     9    10     8     8     9    11     9    12    12    16    15    12     7     7     7     7     7     7    11    10    10     7     7     7
7     6    10     8     8    13     6     6     6     5    10     8    11     6     5     5     4     7    10     5     5     2     4     7    10     8     3     6     9     5     6     6     5     6     3     8     5    21    28    30    37    25    19    19    19    19    19    19    19    19    19    19    19    19    19    19    19    19    19    19    19    19    19    19    19    19    19    19    19    19    14    11    11    11    11    11    11    11    11    11    11    11    11    11    11    11    11    11    11    11    11    11    11    11    11    11    11    11    11    11    11    11    11     7     7     7     8     8    16    20     7     7     7     7     7     7     7     7     7     7     7     7     7     7     7     7     7     7     7     7     7     7     7     7     7     7     7     7     7     7     7     7     7     7     7     7     7     7     7     7     7     7     7     7     7     7     7     7     7     7     7     7     7     7     7     7     7     7     7     7     7     7     7     7     7     7     7     7     7     7     7     7     7     8     8     8     8     8     8     7     7     7     7     7     7     7    23    21    20    17    15    19    11    18    19    17    10     9    11    12    14    18    16    16    17    15    15    15    18    20    18    18    13    13    13    12    10    10     8     7     9    13    16    15    20    11    10     7     7     7     7     7     7     7     7     7     7     7     7     7
14    11     6     7     7     3     5     5     2     2     3     4     7     7     4     5     4     5     5     5     7     2     5     7     7     7     7     7     7     7     8    11    10    17    20    34    42    58    52    40    33    19    19    19    19    19    19    19    19    19    19    19    19    19    19    19    19    19    19    19    19    19    19    19    19    19    19    19    19    19    12    11    11    11    11    11    11    11    11    11    11    11    11    11    11    11    11    11    11    11    11    11    11    11    11    11    11    11    11    11    11    11    11     7     7     8     8     7    17     7     7     7     7     7     7     7     7     7     7     7     7     7     7     7     7     7     7     7     7     7     7     7     7     7     7     7     7     7     7     7     7     7     7     7     7     7     7     7     7     7     7     7     7     7     7     7     7     7     7     7     7     7     7     7     7     7     7     7     7     7     7     7     7     7     7     7     7     7     7     7     7     7     7     7     7     7     7     7     7     7     7     7     7     7     7     7     7     7     7     7     7     7     7    16    21    15    13    13    12    13    13    15    16    17     8     8    17    12    20    18    15    13    15    13    13    11    10     9     9    10    12    19    22    11    19    13    13     7     7     7     7     7     7     7     7     7    11     7     7     7
7     9     4     6     6     4     5     3     3     4     3     2     4    11     7     5     4     4     4     3     3     8     7     5     5     5     6     6     6     7    10    22    31    40    58    71    78    65    55    47    33    19    19    19    19    19    19    19    19    19    19    19    19    19    19    19    19    19    19    19    19    19    19    19    19    19    19    19    19    14    11    11    11    21    11    11    11    11    11    11    11    11    11    11    11    11    11    11    11    11    11    11    11    11    11    11    11    11    11    11    11    11    11     7     7     9     8     8    17     7     7     7     7     7     7     7     7     7     7     7     7     7     7     7     7     7     7     7     7     7     7     7     7     7     7     7     7     7     7     7     7     7     7     7     7     7     7     7     7     7     7     7     7     7     7     7     7     7     7     7     7     7     7     7     7     7     7     7     7     7     7     7     7     7     7     7     7     7     7     7     7     7     7     7     7     7     7     7     7     7     7     7     7     7     7     7     7     7     7     7     7     7     7     7     7     7     7     7     7    11    19    15    14     8     9     8    10    15    18    18    15    13    14    11    13    12    11    10     9    13    18    20    20     7     7    20    17    14     7     7     7     7     7     7     7     7     7     7     7     7
9     7     6     5     5     5     6     5     4     2     4     4     6    12     7     5     4     4     1     9     9     8     8     6     5     6     7     3     8    15    23    35    42    59    71    83    88    80    59    43    34    19    19    19    19    19    19    19    19    19    19    19    19    19    19    19    19    19    19    19    19    19    19    19    19    19    19    19    19    13    11    11    11    22    20    19    17    11    11    11    11    11    11    11    11    11    11    11    11    11    11    11    11    11    11    11    11    11    11    11    11    11    11     7     7     7     7     7    16     7     7     7     7     7     7     7     7     7     7     7     7     7     7     7     7     7     7     7     7     7     7     7     7     7     7     7     7     7     7     7     7     7     7     7     7     7     7     7     7     7     7     7     7     7     7     7     7     7     7     7     7     7     7     7     7     7     7     7     7     7     7     7     7     7     7     7     7     7     7     7     7     7     7     7     7     7     7     7     7     7     7     7     7     7     7     7     7     7     7     7     7     7     7     7     7     7     7     7     7     7     7     7     7    20    15     7     7    13    16    16    15    14    13    12    12    12    12    12    12    20    19     7    19    20     7     7    21    14     7     7     7     7     7     7     7     7     7     7     7     7
15    10     6     4     7     7     6     4     2     4     4     3     5     5     6     9     9     8    11    13    12    10     9     5     3    10     9    24    36    40    41    48    61    73    86    93    93    89    69    48    30    25    19    19    19    19    19    19    19    19    19    19    19    19    19    19    19    19    19    19    19    19    19    19    19    19    19    19    19    12    11    11    11    22    21    14    17    11    11    11    11    11    11    11    11    11    11    11    11    11    11    11    11    11    11    11    11    11    11    11    11    11    11     7     7     7     7     7     7     7     7     7     7     7     7     7     7     7     7     7     7     7     7     7     7     7     7     7     7     7     7     7     7     7     7     7     7     7     7     7     7     7     7     7     7     7     7     7     7     7     7     7     7     7     7     7     7     7     7     7     7     7     7     7     7     7     7     7     7     7     7     7     7     7     7     7     7     7     7     7     7     7     7     7     7     7     7     7     7     7     7     7     7     7     7     7     7     7     7     7     7     7     7     7     7     7     7     7     7     7     7     7     7     7     7     7     7    12    26    17    20    15    15     7    13    19    14    16    21     7     7     7     7    21    15     7     7     7    14     7     7     7     7     7     7     7     7    21     9     7
19    12     9     3     6     9     9     5     2     5     4     2     6     5     9     8     8     9    10     9    13    13    14    16    18    17    27    34    56    64    65    68    67    82    95   101    98    98    81    52    31    24    19    19    19    19    19    19    19    19    19    19    19    19    19    19    19    19    19    19    19    19    19    19    19    19    19    19    18    11    11    11    25    23    20    18    11    11    11    11    11    11    11    11    11    11    11    11    11    11    11    11    11    11    11    11    11    11    11    11    11    11    11     7     7     7     7     7     7     7     7     7     7     7     7     7     7     7     7     7     7     7     7     7     7     7     7     7     7     7     7     7     7     7     7     7     7     7     7     7     7     7     7     7     7     7     7     7     7     7     7     7     7     7     7     7     7     7     7     7     7     7     7     7     7     7     7     7     7     7     7     7     7     7     7     7     7     7     7     7     7     7     7     7     7     7     7     7     7     7     7     7     7     7     7     7     7     7     7     7     7     7     7     7     7     7     7     7     7     7     7     7     7     7     7     7     7     7     7    16    30    25    16    12    13    13    19     7     7     7     7     7     7     7     7     7     7     7    19     7     7     7     7     7     7     7     9     7     7     7
18    17    15     6     9    10    10    11     9     6     5     5     7     9     8     8     9     8    13    14    19    19    19    21    26    27    28    55    64    78    89    87    84    88    98    99   100    97    86    51    28    19    20    19    19    19    19    19    19    19    19    19    19    19    19    19    19    19    19    19    19    19    19    19    19    19    19    19    20    27    28    27    26    24    21    18    11    11    11    11    11    11    11    11    11    11    11    11    11    11    11    11    11    11    11    11    11    11    11    11    11    11    11     7     7     7     7     7     7     7     7     7     7     7     7     7     7     7     7     7     7     7     7     7     7     7     7     7     7     7     7     7     7     7     7     7     7     7     7     7     7     7     7     7     7     7     7     7     7     7     7     7     7     7     7     7     7     7     7     7     7     7     7     7     7     7     7     7     7     7     7     7     7     7     7     7     7     7     7     7     7     7     7     7     7     7     7     7     7     7     7     7     7     7     7     7     7     7     7     7     7     7     7     7     7     7     7     7     7     7     7     7     7     7     7     7     7     7     7     7     7     7     7    12    24    20    15     7     7     7     7     7     7     7     7     7     7     7    19     7     7     7     7     7     7     8     7     7     7     7
20    22    26    28    22    17    19    15     9     6     4     5     6    11     8     7    17    17    19    19    19    19    19    19    29    34    38    57    81    90    95    90    88    83    92   100    98    99    93    67    33    29    21    19    19    19    19    19    19    19    19    19    19    19    19    19    19    19    19    19    19    19    19    19    19    19    19    22    13    20    25    27    26    24    22    19    20    21    25    25    26    11    11    11    11    11    11    11    11    11    11    11    11    11    11    11    11    11    11    11    11    11    11     7     7     7     7     7     7     7     7     7     7     7     7     7     7     7     7     7     7     7     7     7     7     7     7     7     7     7     7     7     7     7     7     7     7     7     7     7     7     7     7     7     7     7     7     7     7     7     7     7     7     7     7     7     7     7     7     7     7     7     7     7     7     7     7     7     7     7     7     7     7     7     7     7     7     7     7     7     7     7     7     7     7     7     7     7     7     7     7     7     7     7     7     7     7     7     7     7     7     7     7     7     7     7     7     7     7     7     7     7     7     7     7     7     7     7     7     7     7     7     7     7     7     7     7     7     7     7     7     7     7     7     7     7     7     7     7     7     7     7     7     7     7     7     7     7     7     7
27    33    24    24    35    24    21    18    14    11     2    11    12    19    17    19    20    19    19    19    19    19    19    19    30    37    37    53    83    95    92    94    91    88    84    92    95    93    83    60    41    17    27    21    19    19    19    19    19    19    19    19    19    19    19    19    19    19    19    19    19    19    19    19    19    19    24    20    14    17    22    25    26    25    23    19    20    25    31    25    27    32    31    27    13    13    14    15    11    11    11    11    11    11    11    11    11    11    11    11    11    11    11     7     7     7     7     7     7     7     7     7     7     7     7     7     7     7     7     7     7     7     7     7     7     7     7     7     7     7     7     7     7     7     7     7     7     7     7     7     7     7     7     7     7     7     7     7     7     7     7     7     7     7     7     7     7     7     7     7     7     7     7     7     7     7     7     7     7     7     7     7     7     7     7     7     7     7     7     7     7     7     7     7     7     7     7     7     7     7     7     7     7     7     7     7     7     7     7     7     7     7     7     7     7     7     7     7     7     7     7     7     7     7     7     7     7     7     7     7     7     7     7     7     7     7     7     7     7     7     7     7     7     7     7     7     7     7     7     7     7     7     7     7     7     7     7     7     7     7
20    24    25    25    25    20    20    19    19    19    15    19    19    19    19    19    19    19    19    19    19    19    19    19    28    35    36    48    65    82    93    96    92    84    80    82    84    78    62    44    38    25    24    22    20    19    19    19    19    19    19    19    19    19    19    19    19    19    19    19    19    19    19    25    24    22    27    12     7    14    19    24    25    26    24    20    22    27    34    27    30    35    36    26    21    16    15    15    15    15    15    15    15    14    13    11    11    11    11    11    11    11    11     7     7     7     7     7     7     7     7     7     7     7     7     7     7     7     7     7     7     7     7     7     7     7     7     7     7     7     7     7     7     7     7     7     7     7     7     7     7     7     7     7     7     7     7     7     7     7     7     7     7     7     7     7     7     7     7     7     7     7     7     7     7     7     7     7     7     7     7     7     7     7     7     7     7     7     7     7     7     7     7     7     7     7     7     7     7     7     7     7     7     7     7     7     7     7     7     7     7     7     7     7     7     7     7     7     7     7     7     7     7     7     7     7     7     7     7     7     7     7     7     7     7     7     7     7     7     7     7     7     7     7     7     7     7     7     7     7     7     7     7     7     7     7     7     7     7     7
19    19    19    19    19    19    19    19    19    19    19    19    19    19    19    19    19    19    19    19    19    19    19    19    19    33    43    39    51    67    81    76    74    69    69    75    74    66    48    29    30    28    27    17    17    17    19    19    19    19    19    19    19    19    19    19    19    19    19    19    19    19    20    22    25    10     3     4     9    15    18    24    28    21    22    18    24    29    32    35    37    32    27    26    22    19    14    14    15    15    15    15    15    14    13    13    13    27    21    11    11    11    11     7     7     7     7     7     7     7     7     7     7     7     7     7     7     7     7     7     7     7     7     7     7     7     7     7     7     7     7     7     7     7     7     7     7     7     7     7     7     7     7     7     7     7     7     7     7     7     7     7     7     7     7     7     7     7     7     7     7     7     7     7     7     7     7     7     7     7     7     7     7     7     7     7     7     7     7     7     7     7     7     7     7     7     7     7     7     7     7     7     7     7     7     7     7     7     7     7     7     7     7     7     7     7     7     7     7     7     7     7     7     7     7     7     7     7     7     7     7     7     7     7     7     7     7     7     7     7     7     7     7     7     7     7     7     7     7     7     7     7     7     7     7     7     7     7     7     7
19    19    19    19    19    19    19    19    19    19    19    19    19    19    19    19    19    19    19    19    19    19    19    19    25    34    40    33    41    57    64    52    54    54    57    62    56    48    30    23    20    25    25    18    21    14    12    12    13    13    11    11    12    20    13    14    14    15    13    14    16    16     8     8     9     6     6     6     8    11    11    19    21    26    17    17    15    28    25    25    28    28    27    26    24    18    16    13    15    15    15    15    15    14    11     7    28    43    44    11    11    11    11    11     8    11     8     8     8     7     7     7     7     7     7     7     7     7     7     7     7     7     7     7     7     7     7     7     7     7     7     7     7     7     7     7     7     7     7     7     7     7     7     7     7     7     7     7     7     7     7     7     7     7     7     7     7     7     7     7     7     7     7     7     7     7     7     7     7     7     7     7     7     7     7     7     7     7     7     7     7     7     7     7     7     7     7     7     7     7     7     7     7     7     7     7     7     7     7     7     7     7     7     7     7     7     7     7     7     7     7     7     7     7     7     7     7     7     7     7     7     7     7     7     7     7     7     7     7     7     7     7     7     7     7     7     7     7     7     7     7     7     7     7     7     7     7     7     7     7
19    19    19    19    19    19    19    19    19    19    19    19    19    19    19    19    19    19    19    19    19    19    19    19    19    32    36    35    44    49    47    37    38    43    42    24    31    20    16    10    13    15    12    12    11     4     4     7    13     7     4     4     8     9     6     5    17    11     9    10    13    11     8     6     5     6     8     7     6     7     7     6     6    14    12    14    15    16    11    10    18    26    19    15    17    21    14    12    14    15    16    13     8     5     5     9    34    50    53    11    11    11    11     2     8     7     6     5     8     8     8    12    13    13    12     7     7     7     7     7     7     7     7     7     7     7     7     7     7     7     7     7     7     7     7     7     7     7     7     7     7     7     7     7     7     7     7     7     7     7     7     7     7     7     7     7     7     7     7     7     7     7     7     7     7     7     7     7     7     7     7     7     7     7     7     7     7     7     7     7     7     7     7     7     7     7     7     7     7     7     7     7     7     7     7     7     7     7     7     7     7     7     7     7     7     7     7     7     7     7     7     7     7     7     7     7     7     7     7     7     7     7     7     7     7     7     7     7     7     7     7     7     7     7     7     7     7     7     7     7     7     7     7     7     7     7     7     7     7     7
19    19    19    19    19    19    19    19    19    19    19    19    19    19    19    19    19    19    19    19    19    19    19    19    19    31    37    39    44    44    35    24    20    22    17     8     7    10     8    11    11    10     9     8     9     7     6     4     6     6     6     6     7     9     4     6     6     9     6     5     8    12     6     6     2     4     4     4     6     5     6     7     7     5    16    15    12     7     3     5     5    10     7     6     5     5    11    13    17    12    14    17    10     7     8    16    38    54    48    29    11    11    11     9     7     8     3     5     6     7     8    11    13    13    12     7     7     7     7     7     7     7     7     7     7     7     7     7     7     7     7     7     7     7     7     7     7     7     7     7     7     7     7     7     7     7     7     7     7     7     7     7     7     7     7     7     7     7     7     7     7     7     7     7     7     7     7     7     7     7     7     7     7     7     7     7     7     7     7     7     7     7     7     7     7     7     7     7     7     7     7     7     7     7     7     7     7     7     7     7     7     7     7     7     7     7     7     7     7     7     7     7     7     7     7     7     7     7     7     7     7     7     7     7     7     7     7     7     7     7     7     7     7     7     7     7     7     7     7     7     7     7     7     7     7     7     7     7     7     7
19    19    19    19    19    19    19    19    19    19    19    19    19    19    19    19    19    19    19    19    19    19    19    19    19    30    36    35    39    25    17    11     9     9     6    10     8     6     9     9     7     6     6     6     4     7     8     9    14    14    12    13     8     7     3     3     5     6    10     6     5     6     8     8     7     4     3     6     7     3     5     5     7     9    11    15     9     6     5     4     7     9     8     4     2     3     4    13    16     7    11    11     8     8     8     8    26    34    35    37    29    12    11     8     7     3     4     4     5     6     7    11    12    12    12     7     7     7     7     7     7     7     7     7     7     7     7     7     7     7     7     7     7     7     7     7     7     7     7     7     7     7     7     7     7     7     7     7     7     7     7     7     7     7     7     7     7     7     7     7     7     7     7     7     7     7     7     7     7     7     7     7     7     7     7     7     7     7     7     7     7     7     7     7     7     7     7     7     7     7     7     7     7     7     7     7     7     7     7     7     7     7     7     7     7     7     7     7     7     7     7     7     7     7     7     7     7     7     7     7     7     7     7     7     7     7     7     7     7     7     7     7     7     7     7     7     7     7     7     7     7     7     7     7     7     7     7     7     7     7
19    19    19    19    19    19    19    19    19    19    19    19    19    19    19    19    19    19    19    19    19    19    19    19    19    26    24    19    22     9     6     6     6     9     8     6     6     3     5     7     5     6     5     3     6     6     7    10    14     8     5     4     5     3     1     5     7     7    15     8     6     5     6     6     5     4     4     5     5     7    10    13     6     8     8     5     5     5     6     5     6     7     7     3     2     2     5     8     9     7     9     5    10     1     4     5    11    19    27    28    23    14    12    11     7     6     4     4     5     5     8    11    14    11     7     7     7     7     7     7     7     7     7     7     7     7     7     7     7     7     7     7     7     7     7     7     7     7     7     7     7     7     7     7     7     7     7     7     7     7     7     7     7     7     7     7     7     7     7     7     7     7     7     7     7     7     7     7     7     7     7     7     7     7     7     7     7     7     7     7     7     7     7     7     7     7     7     7     7     7     7     7     7     7     7     7     7     7     7     7     7     7     7     7     7     7     7     7     7     7     7     7     7     7     7     7     7     7     7     7     7     7     7     7     7     7     7     7     7     7     7     7     7     7     7     7     7     7     7     7     7     7     7     7     7     7     7     7     7     7
19    19    19    19    19    19    19    19    19    19    19    19    19    19    19    19    19    19    19    19    19    19    19    19    21    20    12    13     4     9     6     7     6     6     8     6     5     4     4     4     5     3     5     5     3     5     2     7     9    11     9     5     5     3     2     7     9    11    10     8    12     8    10     7     5     5     6     4     4     9     8     4     5     7     8     8     7     5    10     8    11     6     4     3     2     3     3     4    14    10     6     5     5     2     3     4     4     5    12    16    19     9     2     5     9     4     5     5     5     7     8    10    13    10    11    12     7     7     7     7     7     7     7     7     7     7     7     7     7     7     7     7     7     7     7     7     7     7     7     7     7     7     7     7     7     7     7     7     7     7     7     7     7     7     7     7     7     7     7     7     7     7     7     7     7     7     7     7     7     7     7     7     7     7     7     7     7     7     7     7     7     7     7     7     7     7     7     7     7     7     7     7     7     7     7     7     7     7     7     7     7     7     7     7     7     7     7     7     7     7     7     7     7     7     7     7     7     7     7     7     7     7     7     7     7     7     7     7     7     7     7     7     7     7     7     7     7     7     7     7     7     7     7     7     7     7     7     7     7     7
19    19    19    19    19    19    19    19    19    19    19    19    19    19    19    24    24    21    19    18    19    19    19    17    10     8    12    11     8     5     6     4     3     4     5     5     3     3     5     4     3     4     5     4     1     2     4     6     8    12    13     8     5     5     6     8     7    11    13     7     6     8    10    12     7     5     5     6     7     7     5     4     2     2     4     7     6     5     2     6    12    12    10     8     7     7     4     4     8     5     3     1     4     4     6     6     6     6     8     2     4     5     2     4     7     9    10     1     4     6     9     8     5     8     8    10     9    12    12    11     8     8     8     7     7     7     7     7     7     7     7     7     7     7     7     7     7     7     7     7     7     7     7     7     7     7     7     7     7     7     7     7     7     7     7     7     7     7     7     7     7     7     7     7     7     7     7     7     7     7     7     7     7     7     7     7     7     7     7     7     7     7     7     7     7     7     7     7     7     7     7     7     7     7     7     7     7     7     7     7     7     7     7     7     7     7     7     7     7     7     7     7     7     7     7     7     7     7     7     7     7     7     7     7     7     7     7     7     7     7     7     7     7     7     7     7     7     7     7     7     7     7     7     7     7     7     7     7     7     7
19    19    19    19    19    19    19    19    19    19    19    19    19    19    21    26    29    23    17    12    15    14    13     8     6     8     9     8     4     7     6     4     2     2     3     2     4     2     4     6     7     7     7     4     2     2     4     5     7     3     9     9     6     3     1     3     5     8     8     2     8    11    10    11    11     7     3     5     6     5     4     4     2     3     5     6     3     4     5     6     6     8     6     5     4     8    11    12     7     4     4     3     3     7     7     6     2     4     6     4     3     3     3     5     7     4     3     4     3     4     6     6     4     3     4     8     9     4    18    11    11    11    17    11     9     8     7     7     7     7     7     7     7     7     7     7     7     7     7     7     7     7     7     7     7     7     7     7     7     7     7     7     7     7     7     7     7     7     7     7     7     7     7     7     7     7     7     7     7     7     7     7     7     7     7     7     7     7     7     7     7     7     7     7     7     7     7     7     7     7     7     7     7     7     7     7     7     7     7     7     7     7     7     7     7     7     7     7     7     7     7     7     7     7     7     7     7     7     7     7     7     7     7     7     7     7     7     7     7     7     7     7     7     7     7     7     7     7     7     7     7     7     7     7     7     7     7     7     7     7
19    19    19    19    19    19    19    19    19    19    19    19    19    19    17     6    10     8     4     8    17     7     6     5     6     9     6     9     9    10     7     6     3     4     5     4     4     2     5     5    10    11     8     7     2     4     6     7     6     3     5    11     7     2     3     4     8     9     8     4     8    11     6     8     5     7     5     6     6     5     7     3     1     3     4     5     5     5     5     7     7     7     4     3     5    10    14    11     7     6     5     4     7     7     6     5     6     6     5     4     3     3     4     3     2     5     3     3     4     4     5     4     3     5     8     6     6     2     5     9    14    17    13     7     8     8     7     7     7     7     7     7     7     7     7     7     7     7     7     7     7     7     7     7     7     7     7     7     7     7     7     7     7     7     7     7     7     7     7     7     7     7     7     7     7     7     7     7     7     7     7     7     7     7     7     7     7     7     7     7     7     7     7     7     7     7     7     7     7     7     7     7     7     7     7     7     7     7     7     7     7     7     7     7     7     7     7     7     7     7     7     7     7     7     7     7     7     7     7     7     7     7     7     7     7     7     7     7     7     7     7     7     7     7     7     7     7     7     7     7     7     7     7     7     7     7     7     7     7     7
19    19    19    19    19    19    19    19    19    19    19    19    19    19    13     9    10     8     9     8    13     8     5     9     2     7     6     5     6     8     3     5     6     7     7     6     3     7     7     8    10     8     9     7     4     2     5     7     6     7     5    10    11     6     8     7     9    12     9     7     5    13     6     5     6     5     9     2     6     2     3     5     5     4     5     4     3     4     5     8     8     8     9     5     4     7     5     6     6     8     6     4     6     7     5     4     3     3     4     4     4     4     4     5     6     4     2     3     2     2     3     4     6     5     8     8     3     3     5     7     8     4     6     5    10     7     7     7     7     7     7     7     7     7     7     7     7     7     7     7     7     7     7     7     7     7     7     7     7     7     7     7     7     7     7     7     7     7     7     7     7     7     7     7     7     7     7     7     7     7     7     7     7     7     7     7     7     7     7     7     7     7     7     7     7     7     7     7     7     7     7     7     7     7     7     7     7     7     7     7     7     7     7     7     7     7     7     7     7     7     7     7     7     7     7     7     7     7     7     7     7     7     7     7     7     7     7     7     7     7     7     7     7     7     7     7     7     7     7     7     7     7     7     7     7     7     7     7     7     7
19    19    19    19    19    19    19    19    19    19    20    20    20    13    13    10    10     9     9     9    13    12     6     5     5     6     4     4     4     4     4     6     7     6     7     6     6     6     6     5     6     6     9     7     8     6     5    11     8     8     9     9    10     9     6     6    10    10     5     3     2    13    13     8     6    13     6     4     4     5     5     6     7     8     5     6     3     5     5     7     8     5     5     5     6     4     4     5     5     5     5     9     5     5     9    12    11     6     5     6     6     3     8     7     4     4     4     5     4     3     1     4     3     6     6     5     3     3     3     6     6     4     5     4     8     7     7     7     7     7     7     7     7     7     7     7     7     7     7     7     7     7     7     7     7     7     7     7     7     7     7     7     7     7     7     7     7     7     7     7     7     7     7     7     7     7     7     7     7     7     7     7     7     7     7     7     7     7     7     7     7     7     7     7     7     7     7     7     7     7     7     7     7     7     7     7     7     7     7     7     7     7     7     7     7     7     7     7     7     7     7     7     7     7     7     7     7     7     7     7     7     7     7     7     7     7     7     7     7     7     7     7     7     7     7     7     7     7     7     7     7     7     7     7     7     7     7     7     7     7
19    19    15    19    19    19    19    19    19    20    20    20    14    12     9     7     8    10    10    12     9     7     6     2     2     5     5     6     4     1     3     7     7     7     5     5     8    11     6     4     7     7     7     7     7     6     7     8     7     9    12    11     7     9     9    11     5     4     3     2     6     6     9     4     7     5     5     4     6     9     8     2     8    10     7     6     3     4     5     7     6     7     9     5     5     4     4     5     7     8     4     4     6     4     8     6     9    11     3     4     4     3    10    10     7     5     4     4     4     3     5     9     7     6     4     6     6    10     9    13     5     4     5     5     8     8     8     8     8     8     7     7     7     7     7     7     7     7     7     7     7     7     7     7     7     7     7     7     7     7     7     7     7     7     7     7     7     7     7     7     7     7     7     7     7     7     7     7     7     7     7     7     7     7     7     7     7     7     7     7     7     7     7     7     7     7     7     7     7     7     7     7     7     7     7     7     7     7     7     7     7     7     7     7     7     7     7     7     7     7     7     7     7     7     7     7     7     7     7     7     7     7     7     7     7     7     7     7     7     7     7     7     7     7     7     7     7     7     7     7     7     7     7     7     7     7     7     7     7     7
20    13    10    11    12    13    19    19    19    20    20    21    14     5     7     7     4     7    15    16    13     4     4     3     5     7     6     7     5     5     6     7     6     3     6     9     7     9     7     8    10     8     9    15     9     9     8     8     4     6     7     7     5     9     9     9    10     9     3     2     6     9     8     9     8     6     4     5     6     5     6     2     3     8     6     6     6     8     5     5     6    12    14     9     7     5     4     3     6     9     7     4     5     6     7     6     6     6     4     4     4     6     7     6     4     4     3     5     4     2     2     6    11     1     3     6     8    14    11    10     9     6     4     6     7     7    13     4     5     8     8     8     8     8     8     8     8     7     7     7     7     7     7     7     7     7     7     7     7     7     7     7     7     7     7     7     7     7     7     7     7     7     7     7     7     7     7     7     7     7     7     7     7     7     7     7     7     7     7     7     7     7     7     7     7     7     7     7     7     7     7     7     7     7     7     7     7     7     7     7     7     7     7     7     7     7     7     7     7     7     7     7     7     7     7     7     7     7     7     7     7     7     7     7     7     7     7     7     7     7     7     7     7     7     7     7     7     7     7     7     7     7     7     7     7     7     7     7     7     7
15     8     7     8     9    10    13    19    20    20    21    21    22     9     3     1     3     7    15    15     6     3     3     2     4    10     8     6     9     7    11     9     8     4     5     8     7     6     7     8    10    10     8     8     8     9     7     7     8     9     6     3     6     8     8     4    13     5     3     5     8    13    15    13     8     5     4     3     3     4    12     9     6     8     7     7     7     6     4     6     5     9     9     8     6     4     4     4     7     8     8     6     5     5     5     4     5     2     5     5     3     8     8    14    10     5     3     4     4     1     1     3    10     6     4     5     6    10    10     9     7     7     9     8     7     5     7     8     3     4    10    10    10    10     6     5     8     9     9     8     9    11    11    11     7     7     7     7     7     7     7     7     7     7     7     7     7     7     7     7     7     7     7     7     7     7     7     7     7     7     7     7     7     7     7     7     7     7     7     7     7     7     7     7     7     7     7     7     7     7     7     7     7     7     7     7     7     7     7     7     7     7     7     7     7     7     7     7     7     7     7     7     7     7     7     7     7     7     7     7     7     7     7     7     7     7     7     7     7     7     7     7     7     7     7     7     7     7     7     7     7     7     7     7     7     7     7     7     7     7
20    17    13     6    10    10    12    19    20    20    21    22    22    12     4     2     5     9    10     8     6     3     3     3     4     9    10     3     8     7     5     3     7     4     5     5     5     6     9     9     8     9     9     3     3     3    12     8    10     8     4     4     5     6     4     5     7    12    17    10     8     7     7     8    10     8     4     1     4     3    13    15     8     6     7     7     6     4     8     6     6     8    13    15     6     4     4     4     4     7    10     6     6     5     4     4     3     4     8    10     6     4     6    10     6     5     4     3     4     1     2     6     7     5     5     9     7    10    14     5     7    10     8    10     9     5     4     3     1     4     7     8     9     2     6     5     9    12     9     4     4    10    11    11     9    22    26    18    13    10     9     7     7     7     7     7     7     7     7     7     7     7     7     7     7     7     7     7     7     7     7     7     7     7     7     7     7     7     7     7     7     7     7     7     7     7     7     7     7     7     7     7     7     7     7     7     7     7     7     7     7     7     7     7     7     7     7     7     7     7     7     7     7     7     7     7     7     7     7     7     7     7     7     7     7     7     7     7     7     7     7     7     7     7     7     7     7     7     7     7     7     7     7     7     7     7     7     7     7     7
19    14     5     4     7     9    14    22    22    22    21    22    22    22     7     4     6     8     6     4     7     6     4     3     2    10     7     4     5     7     5     4     3     5     4     5     5     6     5     6     5     3     6     7     2     7    15    11     8     7     6     5     6     8     2     7    12    10    10    17    10     6     4    10    12    13     6     6     4     4    11    11     6     4     6     3     5     5     2     1     3     4    10    12     2     4     4     2     4     5     2     5     2     3     2     1     4     5    10     6     4     5     6     7     8     6     3     2     2     4     3     3     6     6    13    12    16     5    11     5     3    10     8    11    13     9     4     4     4     6     7     7     5     5     4     3     1     7     6     4     7    13    11    11    23    28    28    24    15    12    11     8     7     7     7     7     7     7     7     7     7     7     7     7     7     7     7     7     7     7     7     7     7     7     7     7     7     7     7     7     7     7     7     7     7     7     7     7     7     7     7     7     7     7     7     7     7     7     7     7     7     7     7     7     7     7     7     7     7     7     7     7     7     7     7     7     7     7     7     7     7     7     7     7     7     7     7     7     7     7     7     7     7     7     7     7     7     7     7     7     7     7     7     7     7     7     7     7     7     7
13    11     6     6     8    11    23    25    24    23    22    22    22    22     8     4     4    10     5     3     6     6     2     3     4     5     3     6    10    10     5     4     2     4     3     4     4     5     4     4     5     6     7     8     2     1    13     5     6     6     7     5     6     5     4     8     9    10    15    12     6     6     5     9     9    12     2     2     7     7     9    12     9    11     6     5     3     8     4     3     4     6     8     8    11     3     4     4     5     4     3     5     4     2     3     3     4     5     6     5     3     6     4     7     5     5     4     4     1     1     5     6     8    11    10     8    11    17     4     3     4     8    10     9     7    12    11     7     5     7    12     8     5     7     4     3     5     5     7    18    17    19    17    20    21    24    28    17    16    14    20    13     7     7     7     7     7     7     7     7     7     7     7     7     7     7     7     7     7     7     7     7     7     7     7     7     7     7     7     7     7     7     7     7     7     7     7     7     7     7     7     7     7     7     7     7     7     7     7     7     7     7     7     7     7     7     7     7     7     7     7     7     7     7     7     7     7     7     7     7     7     7     7     7     7     7     7     7     7     7     7     7     7     7     7     7     7     7     7     7     7     7     7     7     7     7     7     7     7     7
18    10     6     6     7    13    26    28    26    24    22    22    21    12     4     5     7     6     6     6     6     6     4     3     6    11     4     8     7     5     6     6     7     4     2     4     5     4     4     5     7     8     5     5     3     6    10     8     5     4     5     7     6     6     3    10    11     6     8     8     5     7     9    13    13     8     5     3     4     5    10    11     8     4     5     6    14    13    12     5     5     5     9    12     9     6     4     5     5     4     5     6     4     5     2     3     3     4     6     2     3     6     6     7     5     5     5     3     4     6     4    13     8     9     9     8    16    10     9    10     6     7    14     6    16    14    14     9     7     9    10    10     9     7     6     7     6    18    12    18    18    19    26    18    20    17    22    15    11    14    16    15     7     7     7     7     7     7     7     7     7     7     7     7     7     7     7     7     7     7     7     7     7     7     7     7     7     7     7     7     7     7     7     7     7     7     7     7     7     7     7     7     7     7     7     7     7     7     7     7     7     7     7     7     7     7     7     7     7     7     7     7     7     7     7     7     7     7     7     7     7     7     7     7     7     7     7     7     7     7     7     7     7     7     7     7     7     7     7     7     7     7     7     7     7     7     7     7     7     7
13     9     7     8     9    12    19    25    25    24    23    22    21    10     6     5     6     9     8    12    13     9     6     5     4     7     8    11     8     7     7     5    12     5     4     3     4     4     3     7     8    10     9    12    14    11     9     8     7     8     7     5     6     5     6     6     5     4     8     9    13    16    10     9    11     9     4     4     3     7    10    16    15     5     4     6     7    10     7     7     8     8     7    10     9     8     8     8     6     4     2     4     4     5     5     3     2     4     4     3     5    10     5     6     4     4     5     5     8    10    10     7     9    10     8     4     8     9     4     3     4     6     8     7    13    16    11     9     9    10    10    12    10     7     7     4    17    15    20    24    23    31    23    13    13    13    15    14    13     9    19    12     7     7     7     7     7     7     7     7     7     7     7     7     7     7     7     7     7     7     7     7     7     7     7     7     7     7     7     7     7     7     7     7     7     7     7     7     7     7     7     7     7     7     7     7     7     7     7     7     7     7     7     7     7     7     7     7     7     7     7     7     7     7     7     7     7     7     7     7     7     7     7     7     7     7     7     7     7     7     7     7     7     7     7     7     7     7     7     7     7     7     7     7     7     7     7     7     7     7
9     8     7     5     7    10    16    23    23    24    24    22    21    11     7     7     6     4     7     9    13     8     5     2     4     6     7    10     8     8     6     9     9     7     4     5     7     5     5     8     9    10    15    17    17    14    12    11     5     9     6     7     5     7     8     8     6     6     5     3     6     8     9    11    13    11    10     5     5     4    15    10     6     5     4     5     4     8     7     7     9     9     2     7     7     5    10     7     6     5     4     4     5     4     6    11     6     5     4     3     4     4     5     4     5     5     5     5     5     7     7    10    11     8     4     4     3     8     6     4     8    13     8     5     9     8     9    11    11    11     9    10    11    10     6     7    18    14    19    18    24    32    26    12     9    14    14    16    15     9     8    13    13    10    12    11    13    14     7     7     7     7     7     7     7     7     7     7     7     7     7     7     7     7     7     7     7     7     7     7     7     7     7     7     7     7     7     7     7     7     7     7     7     7     7     7     7     7     7     7     7     7     7     7     7     7     7     7     7     7     7     7     7     7     7     7     7     7     7     7     7     7     7     7     7     7     7     7     7     7     7     7     7     7     7     7     7     7     7     7     7     7     7     7     7     7     7     7     7     7
7     6     4     5     9    11    14    18    22    23    25    23    20    11     8     7     9     7     5     6     4     2     2     9     5     7    13     8     7    11     3     6     5     3     5     4     6     3     7     9    10     6     1     8    10     8     9    16    12     9    10     7     7     5     4     7    11     9     6     5     7     9     6     7     4     6     5    13    10     9     4     4     5     4     4     4     4     6    11    14     7    11    10     5     7     9    10     8     6     2     2     3     3     4     4     5     3     4     2     3     1     3     3     4     3     5     6     8     8     6     5     3     5     7     6     4     4     9    10     4     6     9     9     6     7    10    16    13    13     9     7     7     8     8     7     9     6    13    25    25    31    38    29    13     9    12    14    15    19    22    16     7    10    11    10    11     9    13    13    13    16    24    23    27    34     7     7     7     7     7     7     7     7     7     7     7     7     7     7     7     7     7     7     7     7     7     7     7     7     7     7     7     7     7     7     7     7     7     7     7     7     7     7     7     7     7     7     7     7     7     7     7     7     7     7     7     7     7     7     7     7     7     7     7     7     7     7     7     7     7     7     7     7     7     7     7     7     7     7     7     7     7     7     7     7     7     7     7     7     7
6     4     5     5     9    14    14    16    21    23    25    23    22    12     6     5     7     9     9     6     6     5    11     8     4     4     8     6     4     6     8     4     6     4     7     8     5     9     9     9     8     5     2     5     5    16    15    17    15    10     6     7     8     8     6     7     8     4     5     4     4     8    10     6    14     7     5    14    11    12     7     7     5     3     4     6     6     7    13    15     6     6     4     5     5     2     4     8     5     3     3     3     3     3     3     6     4     4     5     4     3     5     4     4     6     3     5     8     6     7     5     6     5     4     5     3     5     5     6     9     5     7     9    12     7     5     7    11     9     7     5     7     7     6     7     7     9     8    23    32    41    37    22     2     8    12    13    16    20    28    27    10     2     6     3     2     4     5     7    12     7    18    24    27    22    20    15    14    13    12    10    10     7     7     7     7     7     7     7     7     7     7     7     7     7     7     7     7     7     7     7     7     7     7     7     7     7     7     7     7     7     7     7     7     7     7     7     7     7     7     7     7     7     7     7     7     7     7     7     7     7     7     7     7     7     7     7     7     7     7     7     7     7     7     7     7     7     7     7     7     7     7     7     7     7     7     7     7     7     7
5    10    13     8    15    16    12    14    16    23    24    24    23    11     9    10     7     8     9     7     5     8    12    11     4     6     7     5     7     7     9     7     9     7     6     6     8    15    11     8     5     6     8     9     7     6    10    13    13     7     6     8     8     8     7     6    12    10     5     4     3     4     5     4    18     8    13    13    12    11    10     6     7     4     5     4     6     6     8     4     4     3     5     4     3     5     6     5     5     2     3     3     4     4     4     4     4     3     3     2     3     6     6     6     7     3    13    14     5     6     8     7     6     6     6     6     5     4     6     4     6     5     7     4     3     4     6     7     7     5     5     5     1     1     3     6     9    14    19    37    40    36    16     4     5     6    12     9    21    25    30     7     6     3     2     4     2     2     2     6    10    14    13    12    14    18    15    12    11    12    13    11    11    11     8     8     8     8     8     7     7     7     7     7     7     7     7     7     7     7     7     7     7     7     7     7     7     7     7     7     7     7     7     7     7     7     7     7     7     7     7     7     7     7     7     7     7     7     7     7     7     7     7     7     7     7     7     7     7     7     7     7     7     7     7     7     7     7     7     7     7     7     7     7     7     7     7     7     7     7
6    13     9    12     9    11     9    12    12    15    24    24    14    10     9    12    10     8     7     8     7     8     6     5     6     6     8     5     9     9     3     5     7     7     5     3     6     7     9    13     4     5     5     7     7     7    11    15    11     9     6     8     8     7     6     9    14     8     2     5     2     4     3    11    16    19    15    14    13    11     8     7     8     6     3     4     4    12     4     5     7     7     7     6     5     2     4     5     3     4     4     4     5     2     2     3     5     5     5     4     4     5     6     6    11    11    10    12     5     6    10     9     7     5     5     4     3     4     7     7     5     6     3     5     3     5     6     4     3     6     6     8     4     3     3     7     9     8    21    31    38    41    21    10     8    12     7    18    23    24    23     7     5     7     7     4     1     3     4     5    11    12     9     6    10    10    12    10     8    14    13    13    15    12     6     7     7     7     8     7     7     7     7     7     7     7     7     7     7     7     7     7     7     7     7     7     7     7     7     7     7     7     7     7     7     7     7     7     7     7     7     7     7     7     7     7     7     7     7     7     7     7     7     7     7     7     7     7     7     7     7     7     7     7     7     7     7     7     7     7     7     7     7     7     7     7     7     7     7     7
9    16    12     6     7    10     9    10     8    10    14    14     8    11    13    11    10     7     7     8     8     6     7     4     4    12     9     5     3     6     5     4     5     5     7     7     4     3     7     7     4     6     9    11     9    10    16     8    12     9     7     7     7     7     6     6     8     9     6     5     5     3    10    14    12    13    14    13     9     6     4     7     7     6     4     5    15     9     3     5     5     6     9    10     5     3     2     3     3     6     5     5     8     5     4     6     9     5     2     2     4     4     5     5     6     7    11    16     6     8    10    15     9     6     5     4     4     4     5     5     4     6     5     3     4     4     9     4     4     5    10     6    10     3     6    12    10    14     9    28    40    33    25     7     9    13    13    22    22    23    22     5     7     9     7     4     5     4     4     5     3     3     6     5     1     2     4    10     9    11    15    14    14    13     6    12    14    14    12     7     7     7     7     7     7     7     7     7     7     7     7     7     7     7     7     7     7     7     7     7     7     7     7     7     7     7     7     7     7     7     7     7     7     7     7     7     7     7     7     7     7     7     7     7     7     7     7     7     7     7     7     7     7     7     7     7     7     7     7     7     7     7     7     7     7     7     7     7     7     7
14    14    18     2     2    10    11     7     6    10    13    13    15    13    13     9     9     7     8     9    10     8     5     5     7    10     8     2     4     4     3     4     2     8    10     8     4     3     6     7     7     4     5     5     7     6     7    10     8     7     7     9     9     8     5     6     6     6     5     4     7     7    10    20    15    16    15    14     7     4     4     2     6     8     9    12    16    10     4     6     6     4     5     6     5     3     7     7     6    12    10     8    10    10    10     8    10     2     3     3     5     5     4     5     6    11    10    10    13    12    11     9     9     5     9     6     7     6     6     6     5     4     4     3     5     6     9     9     8     4    11    19    13    12     9     9    11     9    15    26    35    38    28    27    14    20    17    17    23    25    14     3     4     5     4     3     3     4     7     5     6     6     6     5     5     4     6     4     4     6     9    14    14    16    10    11    17    15     7     7     7     7     7     7     7     7     7     7     7     7     7     7     7     7     7     7     7     7     7     7     7     7     7     7     7     7     7     7     7     7     7     7     7     7     7     7     7     7     7     7     7     7     7     7     7     7     7     7     7     7     7     7     7     7     7     7     7     7     7     7     7     7     7     7     7     7     7     7     7     7
13    15    14     8     3     7    14     7     9     8    13    18    22    16    10    12    13     8    11     9     8     9     7     6     5     8     5     4     4     4     6     5     7    17    11     9    11    11    18    12     8     4     2     3     4     6     7     9     7     7     7     4     5     5     4     7     6     7     4     7     9    10    13    17    14    12    12    11     7     4     5     5     4     4    12    18    13    11     9     7     4     5     3     3     1     5    12     8     7     6    10     8    13     8     5     5    10    13     8     7     5     5     5     4     8    10     9     6    19    13     8     5     7     9    11    11     7    10     8     4     7     4     5     3     4     4     5    13    12    13    17    18    15    13     7     7     8     5     8    31    34    35    31    24    18    13     9    10    16    11     9     5     2     4     5     2     5     6     5     3     6    10     7     8    13     8     9     9     6     9    11    11     8     8     8     3    10    13    11     7     7     7     7     7     7     7     7     7     7     7     7     7     7     7     7     7     7     7     7     7     7     7     7     7     7     7     7     7     7     7     7     7     7     7     7     7     7     7     7     7     7     7     7     7     7     7     7     7     7     7     7     7     7     7     7     7     7     7     7     7     7     7     7     7     7     7     7     7     7     7
18    19     8    13    11    11    11    14    16    14    10    14    20    13     6    11    14    16    13     9     7     8     9     9     8     9     5     5     5     8     7     5     7    12    10     8     7    14    13    15    10     4     3     3     6     7     9    12     6     5     7     7     6     7     5     6     5     5     5     3     7    12    14    12     6     4     3     7    10     6     5     4     6     7     9    12    13    12    12     9     3     4     4     3     5     9    10     6     6     7     6     5     7     7     4     8     9    11    12     8     3     2     4     3     5     9     7     7    11    12     9     6     3     8     9     7     4    10    11    12     9     8     7     4     3     3     5     6    18    14    18    18    14    12     7     8     7     9     6    38    32    33    33    20     8     6    13    15    16     8     9     7     7     5     5     7    10    10     9    10     9    13     8    12    12    11    12     7     2     5     3     6     6     5     4     4     3     9     8     8     8     9    11    18    31    29     7     7     7     7     7     7     7     7     7     7     7     7     7     7     7     7     7     7     7     7     7     7     7     7     7     7     7     7     7     7     7     7     7     7     7     7     7     7     7     7     7     7     7     7     7     7     7     7     7     7     7     7     7     7     7     7     7     7     7     7     7     7     7     7
18    14    10    16    16    12    12    17    22    13     9     7     7    13     6     9    16    19    10     8     9     8     9     8     8     4     3     5     6    13     7     6     7    11     6     2     9    13    12     7     3     5     7     4     9    13    10     4     5     5     6     7     7     6     5     6     4     5     4     2     7    13    14     7     5     6     5     8    11     9     4     5     6    10    14     7     9     6     7     7     5     4     3     4     9     9     7     4     5     5     6     5     5     6     7     6    10    11     6     4     3     3     4     4     5     5     5     6    10    11     5     5     6     6     8     7     4     5    13    15    17     7     7     8     5     4     6     9    11    14    17    16    16    15     9     6     4    13    10    17    36    30    27    22     8    13    11    11     9    10    12     9     8    11     9    14    17    12    12     9     5     4     6     8    10     9    10     1     5     4     4     3     3     5     5     4     5     8     7     9    10    10     6    17    21    28    23    18    21    18    19    13    12     7     7     7     7     7     7     7     7     7     7     7     7     7     7     7     7     7     7     7     7     7     7     7     7     7     7     7     7     7     7     7     7     7     7     7     7     7     7     7     7     7     7     7     7     7     7     7     7     7     7     7     7     7     7     7     7     7
11    12    13    11    12    15    19    22    20    13     9     3     5     7     4     6    15    17    12    11     8     7     8     6    10     7     4     2     5     8    11     7     6     9    11     4     3     8    12     4     3     5     7     5     9    11    17     8     4     6     5     7     7     7     6     5     5     6     5     4     9    11    11     5     7     4     4     6     6     8     8     9     6     9     6     6     2     4     4     7     5    10     6     4     8     6     5     3     5     6     3     4     5     4     3    10     6     6     6     2     2     2     4     5     7     9     6     8    10     9     3     3     5     7     6     7     4     4    11    15    12     8     7     8     7     4    10     7    10     8     6    11    18    18    13     7     8    11    12     9    11    23    22    12     9    14    19    14    10    11    13    16    10    12     6     5    11     9    10     8     7     6     8     4     9     9     5     7     3     6     4     3     3     3     2     3     3     5    10     8    13    15    10     3     7    12     6     8     3     8    17    16    17    21    16    20    12     9    11    14     7     7     7     7     7     7     7     7     7     7     7     7     7     7     7     7     7     7     7     7     7     7     7     7     7     7     7     7     7     7     7     7     7     7     7     7     7     7     7     7     7     7     7     7     7     7     7     7     7     7
5    10    13    10    12    15    20    17     9     8     8     7     5     7     4     8    11    16    18    13    10     6     7     7     8     8     7     5     5     8    11     9    11    10     8     9     3     8     6     5     3     3     4     4     4    10    13     6     7     9     7     8    10     7     5     5     7     5     4    11    10    10     6     6     5     6     5     6    10     8     8    15    15     3     6     9     4     4     5     8    13     5     4     4     7     9     5     3     4     8     5     7     6     6     6     4     6     4     3     3     7     6     5     4     7     9     5     8    13     9     7     7     7    12     9     9     5     8    12    15    10     7     5     7    10     8     7     8     5     4     4    10    19    13    19     6     8     7    12    13    12    26    19     9     6     8    12     8     9     5     9     6     9     5     4     5     4     5     7     7     6     6     8     4     6     6     6     9     9     7     5     2     3     4     5     6     8     8     5     7     4     6     8     5     6     8     8     5    10    14    12    12    13    16    18     9     8     6     8    13    14     8     7     7     7     7     7     7     7     7     7     7     7     7     7     7     7     7     7     7     7     7     7     7     7     7     7     7     7     7     7     7     7     7     7     7     7     7     7     7     7     7     7     7     7     7     7     7     7     7
4     8     8     6    10    16    15    14     5     5    10     5     7     5     8     8     6    11    17    17     9     2     6     9     8     9     8     7    11    13     9    13    14    13    10     7    10     6     5     6     5     2     3     3    12    11     5     6     6     5     8     6     8     7     6     6     4     8    14    14     9     5     4     5     5     3     7     8    10     9    13    19     5     3     9    15    11     8     7     7     8     3     1     3     3     5     1     2     3     4     5     4     2     4     4     5     2     3     4     3     6     8    12     8     6     5     6     6     8     9    13     7     6     5    10    11     7     9    11    12     7     5     4     7    10    12    13     4     3     3    15    15    14    13    13     9     4     8    15    14    25    21    20     6     2     8    11     9    12     5     6     5     4     4     3     4     6     5     3    13    11    15     9     4     1     3     3     6    10     8    12     7     5     5     3     7    10    10    12     5     3     3     2     3     4     7     7    11    13    12    12    13    13    14     9     9    12    14     8     8     8     7     7     7     7     7     7     7     7     7     7     7     7     7     7     7     7     7     7     7     7     7     7     7     7     7     7     7     7     7     7     7     7     7     7     7     7     7     7     7     7     7     7     7     7     7     7     7     7     7
3     7     8     7     9     4    11    10    10     5     3     5     3     9    12     3     4    11    19    12    16     9     2     5     5     6     8     8    15    18    17    13    14    14     7     4     6     4     3     2     5     8     8    12     7     8     7     7     8     6     5     5     6     8    10     5     7     4     7     6     4     5     4     5     5     6     2     6    10    14    16     4     7     8    10    17    15     9     5     4     9     6     4     2     3     3     2     3     2     4     6     3     4     4     4     4     6     4     3     4     4     7    12     7     5     4     4     7     7     8     8     6     6     6     9    13    11     7     8    11     9     6     5     7    12     4     3     2     6     9     8    10    14    18     7     8     8    12    21    22    18    13    16     4     4     6     8     7     8     3     5     4     5     4     1     4     3     4     5     9    17    10     7     4     3     3     4     6     6     8     7    10    10     7     5     8    10    11    14    14     3     3     4     5     5     3     4     8    10    11    10     8     8     9     7     7     6    13    10    11    11     7     7     7     7     7     7     7     7     7     7     7     7     7     7     7     7     7     7     7     7     7     7     7     7     7     7     7     7     7     7     7     7     7     7     7     7     7     7     7     7     7     7     7     7     7     7     7     7     7
4     4     7     7     8     6     7    11    11     9     8     6     6     5     7     5     9    11    13    11     9    10    10    10     4     7     8    10    10    11    17     7    10    11    11     3     5     3     3     3     6    10     8     6     6     5     8     5     9     8     5     4     6     6    10     7     6     7     5     8     7     5     3     4     5     6     5    12    14    16     4     3     3     4     5     7     5     6     5     4     7    10     7     6     5     1     4     4     1     2     3     5     4     4     5     4     2     2     4     5     7     8     7     6     6     7    10    10     6     3     8     4     4     6    10    13    14    11     9     5     8     6     5     2    11     3     7     3     7     7     7     6    14    15    11    12    11    11    21    17    13    12    19     2     3     7     5     5     7     6     5     6     3     4     4     4     3     4     7    12     8     6     7     5     5     2     7     7     7    11     4     8     4     5     3     3     9     3    16    17    13    11     4    11     9     4     9    11     9    15    10     7     9     7     5     4     6     6     6     8    10    12    16    21     7     7     7     7     7     7     7     7     7     7     7     7     7     7     7     7     7     7     7     7     7     7     7     7     7     7     7     7     7     7     7     7     7     7     7     7     7     7     7     7     7     7     7     7     7     7
