ncols 250
nrows 63
xllcorner 108.380127
yllcorner 211.986062
cellsize 25
NODATA_value -9999
1442  1443  1445  1444  1447  1450  1454  1456  1458  1467  1474  1472  1473  1461  1459  1449  1442  1431  1424  1422  1424  1425  1424  1427  1423  1431  1437  1431  1421  1418  1419  1418  1423  1426  1428  1428  1426  1426  1422  1423  1432  1432  1431  1431  1431  1432  1436  1440  1443  1448  1449  1449  1448  1447  1437  1434  1435  1435  1437  1442  1439  1439  1435  1434  1432  1432  1430  1431  1432  1434  1434  1440  1444  1459  1476  1491  1503  1506  1503  1498  1494  1488  1481  1476  1474  1467  1459  1450  1444  1440  1439  1439  1436  1434  1430  1430  1430  1430  1434  1437  1449  1460  1465  1466  1470  1485  1495  1502  1500  1489  1482  1471  1463  1463  1457  1454  1463  1472  1472  1471  1468  1472  1474  1463  1460  1460  1467  1478  1480  1474  1473  1474  1470  1466  1467  1463  1472  1477  1474  1470  1461  1460  1459  1459  1457  1454  1450  1450  1450  1447  1449  1449  1450  1447  1448  1447  1448  1446  1445  1446  1448  1447  1448  1451  1451  1449  1448  1447  1445  1445  1448  1452  1459  1461  1463  1465  1467  1471  1474  1477  1474  1470  1453  1452  1450  1450  1449  1455  1447  1450  1448  1446  1448  1440  1444  1447  1448  1449  1450  1447  1446  1449  1450  1450  1453  1454  1455  1454  1457  1474  1483  1477  1471  1469  1464  1464  1467  1467  1470  1469  1470  1465  1462  1465  1470  1480  1481  1491  1496  1507  1535  1542  1542  1527  1516  1512  1509  1529  1536  1539  1541  1543  1543  1549  1548  1541  1545  1549  1556  1563
1436  1442  1447  1447  1449  1451  1456  1460  1471  1479  1480  1478  1470  1464  1448  1443  1441  1438  1433  1428  1426  1426  1424  1424  1421  1420  1431  1438  1424  1422  1421  1420  1422  1423  1428  1428  1426  1421  1419  1419  1424  1425  1426  1427  1428  1431  1434  1438  1442  1446  1451  1453  1443  1436  1434  1431  1429  1429  1428  1428  1429  1430  1433  1433  1433  1432  1432  1432  1431  1429  1426  1433  1447  1458  1472  1481  1490  1502  1504  1505  1500  1496  1490  1484  1476  1471  1465  1454  1447  1443  1441  1439  1437  1434  1432  1432  1433  1433  1433  1434  1440  1444  1450  1455  1459  1464  1477  1487  1489  1486  1477  1466  1462  1451  1435  1433  1445  1456  1462  1462  1463  1462  1462  1462  1462  1462  1465  1464  1464  1463  1462  1460  1463  1463  1456  1457  1467  1475  1475  1468  1459  1456  1452  1456  1454  1449  1449  1450  1447  1445  1447  1446  1447  1449  1449  1449  1449  1446  1444  1446  1450  1448  1447  1446  1447  1446  1446  1448  1448  1451  1455  1460  1466  1470  1465  1465  1465  1466  1467  1472  1471  1463  1456  1450  1446  1449  1453  1453  1455  1454  1452  1446  1445  1442  1446  1448  1450  1452  1450  1448  1449  1454  1455  1453  1454  1454  1454  1449  1450  1465  1471  1472  1469  1464  1463  1463  1465  1464  1462  1462  1463  1461  1460  1463  1476  1486  1491  1503  1508  1516  1539  1541  1539  1533  1519  1513  1515  1518  1522  1525  1532  1532  1533  1535  1539  1537  1545  1546  1549  1552
1438  1445  1450  1451  1452  1454  1459  1467  1480  1480  1478  1466  1459  1457  1450  1444  1443  1447  1447  1458  1453  1441  1430  1421  1417  1419  1423  1424  1432  1431  1424  1421  1423  1426  1431  1429  1423  1418  1417  1420  1417  1415  1419  1422  1426  1428  1426  1427  1432  1438  1439  1436  1435  1438  1433  1430  1427  1425  1426  1428  1428  1424  1429  1429  1429  1428  1430  1430  1428  1422  1426  1432  1445  1464  1471  1470  1478  1491  1496  1500  1498  1503  1496  1491  1481  1475  1467  1458  1451  1446  1441  1439  1437  1433  1433  1434  1432  1430  1430  1430  1433  1435  1436  1443  1448  1451  1458  1464  1467  1468  1468  1461  1452  1441  1431  1429  1435  1440  1447  1445  1450  1447  1450  1451  1454  1453  1456  1456  1452  1453  1452  1453  1458  1464  1459  1463  1466  1473  1469  1468  1456  1455  1456  1455  1452  1450  1450  1450  1446  1447  1444  1444  1444  1446  1445  1445  1448  1447  1446  1446  1448  1449  1446  1443  1441  1443  1445  1449  1450  1451  1456  1458  1464  1467  1468  1467  1466  1464  1463  1466  1462  1456  1455  1444  1446  1448  1451  1449  1453  1452  1446  1446  1445  1449  1451  1455  1458  1460  1453  1449  1450  1456  1462  1459  1450  1448  1454  1453  1453  1457  1463  1470  1470  1466  1461  1462  1464  1461  1458  1457  1458  1456  1463  1471  1480  1493  1500  1511  1519  1532  1544  1544  1544  1533  1522  1515  1513  1519  1523  1522  1525  1527  1533  1535  1537  1540  1546  1552  1550  1546
1445  1449  1454  1457  1459  1461  1467  1474  1481  1483  1478  1464  1460  1453  1448  1443  1438  1448  1451  1462  1461  1452  1439  1427  1419  1412  1414  1425  1437  1437  1435  1433  1431  1425  1423  1423  1424  1420  1420  1421  1420  1416  1414  1417  1424  1428  1428  1428  1428  1430  1431  1431  1429  1430  1437  1429  1425  1423  1427  1429  1431  1430  1431  1429  1430  1433  1436  1435  1430  1429  1430  1432  1437  1447  1463  1465  1465  1478  1484  1489  1492  1496  1505  1503  1489  1485  1473  1463  1452  1445  1441  1439  1435  1431  1430  1431  1433  1433  1431  1431  1432  1434  1435  1439  1444  1447  1450  1455  1461  1462  1457  1448  1444  1437  1435  1432  1431  1435  1439  1437  1438  1435  1437  1440  1444  1448  1446  1447  1446  1444  1447  1448  1450  1457  1464  1469  1469  1471  1470  1461  1459  1455  1455  1453  1451  1450  1451  1451  1447  1444  1442  1443  1443  1445  1445  1446  1448  1448  1447  1446  1447  1446  1445  1442  1440  1442  1444  1446  1445  1446  1451  1458  1458  1462  1465  1464  1462  1462  1462  1462  1455  1448  1448  1445  1443  1445  1447  1446  1442  1449  1446  1452  1453  1459  1461  1463  1466  1464  1458  1454  1464  1464  1464  1461  1454  1448  1451  1452  1454  1456  1461  1463  1462  1458  1459  1466  1467  1463  1456  1459  1459  1453  1458  1468  1483  1499  1511  1523  1534  1550  1554  1550  1535  1527  1519  1516  1515  1519  1524  1528  1534  1536  1535  1541  1546  1546  1552  1554  1550  1544
1454  1457  1459  1461  1467  1471  1478  1483  1489  1483  1480  1468  1454  1452  1436  1435  1428  1440  1447  1460  1462  1463  1453  1437  1413  1413  1413  1416  1431  1439  1442  1443  1437  1430  1421  1424  1434  1439  1444  1436  1428  1421  1416  1418  1423  1429  1433  1431  1426  1427  1428  1423  1423  1428  1433  1434  1430  1428  1429  1431  1431  1435  1439  1440  1442  1446  1450  1447  1438  1430  1427  1427  1430  1434  1433  1436  1448  1465  1474  1479  1482  1489  1501  1496  1491  1483  1473  1465  1458  1445  1440  1438  1434  1430  1429  1429  1430  1432  1432  1431  1430  1432  1432  1433  1438  1442  1443  1449  1454  1451  1448  1438  1436  1434  1437  1433  1433  1434  1437  1441  1439  1433  1433  1434  1435  1436  1438  1441  1442  1442  1444  1444  1447  1456  1465  1469  1471  1468  1465  1462  1459  1456  1456  1454  1452  1450  1448  1447  1445  1446  1443  1443  1442  1442  1444  1445  1445  1448  1448  1448  1448  1449  1446  1442  1440  1441  1442  1443  1442  1444  1447  1450  1451  1455  1458  1456  1454  1456  1458  1458  1446  1441  1440  1442  1442  1443  1444  1445  1441  1442  1448  1458  1464  1465  1464  1463  1468  1467  1463  1462  1475  1477  1470  1464  1460  1455  1451  1450  1458  1454  1456  1459  1459  1458  1462  1468  1473  1467  1463  1462  1459  1459  1461  1462  1485  1506  1522  1528  1544  1556  1554  1544  1531  1520  1515  1512  1515  1528  1537  1545  1546  1547  1545  1551  1553  1553  1549  1547  1540  1536
1458  1464  1463  1469  1474  1481  1491  1494  1498  1491  1484  1471  1463  1447  1437  1435  1435  1433  1437  1444  1460  1466  1470  1441  1424  1417  1418  1413  1430  1444  1447  1452  1442  1441  1435  1450  1450  1463  1467  1461  1442  1428  1422  1423  1425  1431  1436  1433  1426  1429  1426  1423  1424  1427  1432  1436  1437  1436  1435  1435  1438  1443  1447  1451  1454  1459  1462  1463  1451  1437  1428  1425  1428  1431  1431  1429  1434  1448  1461  1469  1476  1484  1493  1492  1489  1480  1473  1466  1458  1449  1439  1435  1435  1433  1430  1431  1433  1434  1434  1433  1431  1431  1431  1433  1432  1431  1433  1437  1439  1439  1440  1432  1430  1429  1434  1436  1437  1438  1443  1441  1438  1432  1433  1434  1433  1432  1433  1438  1442  1443  1442  1445  1454  1462  1466  1469  1471  1466  1463  1461  1456  1457  1459  1459  1453  1449  1448  1448  1448  1446  1445  1444  1442  1443  1445  1446  1449  1446  1447  1449  1445  1445  1444  1441  1440  1444  1442  1443  1440  1443  1445  1446  1447  1448  1450  1447  1444  1447  1447  1447  1445  1440  1445  1443  1444  1444  1444  1445  1446  1450  1458  1464  1463  1473  1470  1466  1466  1466  1477  1481  1481  1477  1475  1470  1463  1459  1454  1451  1450  1450  1453  1459  1461  1463  1473  1483  1487  1486  1472  1460  1460  1465  1464  1463  1493  1516  1534  1546  1556  1560  1552  1537  1525  1518  1516  1512  1519  1531  1543  1547  1552  1550  1549  1557  1556  1552  1541  1538  1533  1531
1452  1465  1467  1473  1476  1485  1493  1496  1501  1496  1489  1474  1464  1453  1442  1438  1438  1430  1431  1441  1465  1478  1473  1452  1436  1423  1418  1418  1419  1427  1438  1445  1451  1463  1469  1475  1471  1472  1477  1473  1466  1447  1433  1434  1434  1439  1437  1434  1431  1434  1432  1426  1419  1429  1431  1436  1441  1447  1448  1448  1448  1450  1455  1460  1472  1473  1473  1468  1459  1450  1439  1430  1427  1425  1424  1425  1428  1436  1444  1455  1468  1472  1478  1479  1484  1482  1473  1465  1458  1449  1439  1435  1436  1436  1435  1432  1434  1433  1433  1431  1431  1433  1432  1429  1428  1427  1430  1431  1432  1433  1434  1433  1434  1436  1437  1436  1437  1441  1443  1443  1438  1435  1434  1433  1431  1428  1431  1437  1442  1445  1446  1451  1459  1465  1466  1469  1470  1466  1467  1461  1462  1463  1463  1461  1454  1450  1449  1451  1452  1449  1447  1446  1445  1443  1445  1446  1447  1447  1446  1449  1447  1444  1440  1438  1439  1442  1443  1442  1440  1443  1443  1443  1444  1443  1443  1441  1438  1442  1442  1442  1441  1442  1444  1442  1446  1448  1449  1452  1458  1466  1468  1479  1481  1480  1478  1477  1478  1480  1479  1478  1482  1479  1476  1469  1464  1461  1454  1453  1451  1452  1458  1468  1475  1486  1496  1506  1518  1511  1489  1464  1471  1469  1468  1478  1491  1519  1537  1553  1560  1560  1549  1530  1520  1516  1509  1508  1519  1534  1549  1553  1557  1558  1557  1555  1554  1546  1535  1529  1527  1527
1452  1453  1457  1468  1472  1478  1495  1499  1493  1488  1482  1475  1461  1456  1452  1444  1443  1432  1436  1449  1478  1482  1478  1468  1449  1437  1422  1416  1422  1420  1431  1443  1458  1466  1476  1481  1478  1483  1486  1481  1477  1461  1453  1451  1449  1446  1445  1441  1434  1433  1434  1425  1428  1429  1433  1436  1445  1454  1458  1460  1460  1462  1469  1473  1481  1480  1475  1472  1470  1463  1454  1441  1434  1430  1426  1424  1426  1429  1434  1444  1459  1464  1467  1471  1478  1476  1475  1468  1458  1450  1443  1439  1438  1437  1432  1433  1435  1430  1429  1429  1428  1428  1428  1429  1425  1426  1427  1429  1431  1432  1433  1433  1431  1435  1437  1440  1441  1441  1442  1441  1437  1436  1437  1432  1432  1431  1433  1438  1444  1446  1446  1448  1455  1462  1464  1462  1465  1466  1469  1463  1464  1461  1462  1460  1456  1454  1454  1455  1454  1450  1447  1446  1445  1443  1443  1444  1445  1446  1444  1442  1443  1441  1439  1440  1442  1444  1444  1446  1443  1444  1443  1441  1439  1440  1443  1439  1440  1440  1442  1442  1441  1443  1445  1447  1452  1457  1465  1467  1474  1483  1489  1499  1499  1502  1500  1488  1485  1494  1494  1487  1483  1482  1475  1467  1461  1455  1451  1453  1455  1463  1470  1480  1494  1514  1513  1528  1527  1522  1505  1479  1467  1474  1473  1479  1490  1518  1544  1548  1555  1552  1542  1529  1518  1513  1511  1510  1519  1531  1546  1553  1559  1557  1554  1554  1542  1535  1530  1527  1522  1525
1449  1451  1451  1457  1472  1479  1488  1491  1487  1489  1482  1476  1461  1461  1452  1447  1438  1439  1443  1460  1476  1487  1489  1478  1461  1448  1433  1426  1418  1424  1427  1434  1457  1464  1463  1471  1480  1483  1489  1489  1488  1479  1472  1467  1459  1451  1449  1445  1443  1440  1438  1437  1426  1428  1434  1431  1438  1448  1455  1463  1469  1474  1485  1486  1493  1492  1483  1482  1477  1468  1461  1451  1439  1433  1428  1428  1426  1427  1429  1431  1444  1452  1463  1468  1471  1475  1471  1467  1459  1452  1448  1445  1441  1438  1436  1435  1433  1430  1428  1430  1431  1431  1430  1430  1424  1432  1428  1431  1434  1437  1438  1440  1436  1440  1438  1438  1439  1444  1443  1440  1439  1436  1437  1431  1430  1433  1433  1439  1441  1442  1441  1440  1445  1449  1453  1456  1461  1462  1463  1462  1462  1458  1459  1457  1456  1456  1456  1457  1454  1451  1447  1444  1441  1442  1443  1444  1442  1444  1445  1444  1440  1442  1443  1441  1441  1442  1446  1446  1445  1445  1444  1441  1439  1442  1442  1441  1439  1441  1444  1445  1445  1450  1455  1460  1466  1471  1477  1483  1485  1495  1505  1515  1512  1512  1511  1505  1506  1500  1498  1488  1485  1480  1477  1470  1457  1452  1453  1461  1462  1470  1473  1494  1507  1515  1523  1530  1532  1522  1510  1495  1473  1469  1471  1477  1494  1514  1539  1544  1547  1546  1539  1529  1519  1516  1516  1523  1525  1525  1538  1547  1552  1550  1552  1542  1534  1529  1525  1525  1521  1524
1446  1447  1448  1456  1466  1476  1479  1482  1478  1480  1483  1475  1467  1461  1453  1439  1431  1434  1440  1458  1476  1486  1486  1481  1474  1460  1441  1433  1426  1420  1426  1428  1445  1454  1460  1468  1474  1491  1491  1487  1488  1490  1480  1477  1469  1459  1452  1448  1447  1443  1439  1439  1431  1421  1423  1427  1436  1442  1448  1462  1470  1485  1486  1497  1503  1503  1496  1485  1482  1474  1464  1455  1441  1435  1430  1430  1426  1425  1425  1428  1440  1448  1459  1465  1468  1472  1471  1468  1463  1457  1453  1448  1443  1439  1435  1432  1430  1432  1431  1434  1435  1437  1435  1428  1428  1430  1434  1439  1439  1441  1444  1446  1442  1441  1445  1444  1445  1447  1448  1443  1441  1438  1436  1431  1432  1434  1436  1438  1439  1439  1441  1440  1442  1443  1451  1455  1459  1463  1462  1459  1459  1456  1455  1453  1455  1457  1457  1453  1451  1450  1447  1444  1442  1442  1444  1444  1441  1444  1444  1444  1445  1451  1449  1448  1444  1445  1444  1447  1446  1444  1442  1441  1442  1444  1444  1444  1441  1440  1445  1450  1451  1458  1462  1467  1472  1475  1480  1488  1495  1506  1512  1517  1521  1522  1515  1513  1509  1496  1479  1480  1475  1470  1467  1461  1458  1452  1450  1469  1474  1470  1479  1490  1510  1525  1528  1535  1531  1514  1505  1494  1480  1471  1472  1480  1500  1524  1540  1542  1542  1537  1529  1525  1520  1520  1522  1525  1522  1523  1531  1537  1540  1539  1535  1533  1524  1522  1522  1524  1524  1526
1428  1439  1447  1449  1458  1468  1470  1470  1473  1484  1490  1489  1472  1460  1452  1439  1434  1434  1446  1461  1479  1485  1487  1490  1483  1470  1454  1450  1436  1423  1425  1433  1434  1440  1451  1465  1469  1490  1497  1498  1494  1490  1489  1483  1473  1464  1456  1455  1449  1444  1444  1441  1431  1426  1426  1429  1433  1438  1444  1456  1470  1475  1485  1490  1497  1505  1500  1486  1480  1473  1466  1456  1444  1437  1434  1431  1429  1429  1429  1428  1435  1439  1452  1459  1463  1465  1465  1464  1461  1458  1454  1449  1442  1439  1439  1435  1434  1433  1433  1435  1436  1434  1433  1433  1436  1440  1437  1442  1445  1446  1443  1448  1453  1453  1453  1453  1454  1456  1455  1448  1446  1443  1440  1436  1436  1436  1436  1437  1437  1438  1438  1438  1440  1448  1452  1457  1460  1459  1457  1456  1455  1456  1457  1451  1452  1454  1453  1454  1452  1450  1447  1444  1443  1442  1444  1443  1441  1445  1443  1447  1455  1462  1465  1460  1454  1450  1452  1452  1452  1446  1444  1442  1443  1444  1444  1445  1441  1442  1449  1457  1462  1466  1469  1472  1475  1478  1481  1483  1491  1502  1515  1519  1523  1522  1521  1510  1494  1474  1471  1463  1459  1462  1463  1458  1453  1450  1458  1471  1468  1470  1476  1493  1510  1527  1543  1537  1526  1516  1501  1494  1484  1478  1475  1488  1507  1530  1537  1542  1539  1532  1524  1520  1518  1514  1516  1523  1523  1525  1526  1525  1523  1522  1520  1517  1518  1518  1518  1520  1524  1529
1422  1431  1445  1448  1454  1465  1468  1470  1479  1493  1491  1488  1476  1449  1441  1434  1426  1428  1445  1458  1474  1485  1492  1499  1492  1483  1469  1457  1443  1425  1426  1430  1433  1430  1439  1446  1460  1479  1488  1498  1500  1496  1488  1481  1477  1471  1463  1456  1450  1443  1441  1441  1434  1431  1429  1430  1435  1435  1438  1446  1460  1468  1469  1479  1497  1499  1497  1484  1478  1470  1461  1451  1441  1435  1432  1435  1436  1441  1440  1439  1438  1441  1441  1450  1455  1462  1464  1462  1462  1455  1450  1447  1444  1445  1447  1442  1437  1437  1437  1436  1434  1434  1431  1433  1441  1445  1442  1442  1448  1446  1448  1453  1457  1462  1464  1467  1473  1470  1464  1457  1450  1445  1441  1438  1437  1437  1437  1438  1435  1435  1437  1435  1436  1439  1445  1453  1459  1456  1451  1450  1451  1450  1451  1449  1450  1451  1453  1451  1450  1448  1448  1447  1446  1445  1444  1442  1438  1439  1443  1456  1463  1473  1474  1466  1462  1459  1461  1455  1459  1455  1451  1449  1447  1445  1445  1447  1443  1445  1455  1464  1466  1470  1470  1471  1470  1475  1477  1482  1491  1501  1520  1523  1524  1520  1515  1499  1479  1467  1460  1458  1455  1458  1458  1454  1451  1452  1460  1459  1466  1475  1488  1503  1520  1537  1550  1540  1529  1511  1502  1494  1489  1479  1481  1495  1511  1523  1530  1538  1535  1526  1523  1517  1511  1509  1508  1508  1512  1515  1516  1518  1516  1514  1513  1511  1511  1510  1510  1512  1512  1516
1419  1431  1446  1449  1462  1469  1473  1475  1486  1498  1500  1487  1479  1454  1448  1426  1424  1422  1438  1452  1460  1480  1500  1509  1504  1488  1476  1460  1446  1431  1429  1430  1430  1436  1438  1448  1458  1470  1489  1500  1504  1498  1488  1480  1474  1464  1459  1454  1452  1448  1445  1447  1444  1441  1437  1435  1432  1430  1431  1437  1445  1459  1466  1475  1495  1503  1493  1483  1473  1466  1454  1450  1437  1431  1429  1436  1445  1450  1457  1453  1453  1453  1448  1447  1451  1460  1467  1469  1463  1454  1447  1446  1446  1449  1449  1446  1442  1441  1440  1438  1435  1432  1432  1432  1441  1449  1448  1448  1447  1451  1454  1459  1465  1469  1474  1474  1476  1474  1467  1461  1453  1447  1443  1441  1439  1437  1435  1437  1433  1431  1432  1434  1434  1435  1439  1446  1450  1449  1445  1442  1442  1443  1447  1445  1443  1445  1446  1445  1442  1441  1442  1443  1443  1445  1443  1441  1438  1436  1443  1455  1468  1475  1474  1476  1471  1471  1473  1470  1470  1465  1459  1452  1449  1446  1447  1448  1445  1447  1459  1469  1471  1472  1468  1465  1468  1479  1483  1491  1504  1512  1518  1530  1529  1520  1506  1492  1477  1463  1457  1459  1461  1458  1454  1451  1449  1454  1463  1468  1476  1486  1495  1511  1529  1551  1549  1545  1527  1512  1503  1498  1489  1487  1494  1504  1512  1523  1528  1530  1529  1520  1520  1513  1507  1508  1509  1511  1506  1508  1510  1508  1507  1504  1504  1504  1509  1510  1506  1506  1507  1511
1427  1432  1446  1457  1465  1470  1472  1473  1478  1487  1491  1488  1480  1465  1449  1423  1424  1426  1433  1444  1455  1478  1506  1510  1512  1503  1481  1459  1444  1439  1427  1425  1436  1439  1451  1456  1465  1473  1484  1496  1502  1495  1485  1474  1464  1456  1453  1453  1454  1455  1456  1457  1459  1455  1450  1446  1439  1431  1428  1431  1439  1451  1461  1472  1488  1499  1491  1483  1472  1464  1450  1442  1435  1427  1429  1439  1452  1458  1466  1465  1465  1461  1458  1450  1454  1461  1470  1472  1469  1461  1455  1451  1448  1449  1447  1444  1445  1446  1443  1438  1433  1434  1434  1436  1442  1450  1455  1455  1456  1459  1466  1475  1478  1482  1484  1481  1480  1473  1468  1464  1457  1451  1445  1441  1440  1439  1437  1439  1435  1432  1432  1432  1434  1437  1436  1438  1440  1440  1440  1439  1439  1440  1440  1439  1436  1439  1441  1441  1438  1437  1437  1438  1440  1444  1443  1440  1437  1440  1441  1452  1466  1473  1478  1482  1481  1481  1482  1480  1479  1472  1463  1459  1452  1447  1449  1447  1446  1449  1455  1463  1466  1465  1466  1468  1475  1482  1489  1498  1511  1518  1522  1536  1535  1522  1511  1498  1479  1466  1457  1457  1456  1453  1451  1452  1455  1456  1467  1479  1495  1502  1517  1525  1546  1561  1554  1540  1530  1519  1507  1500  1499  1499  1503  1507  1516  1524  1527  1527  1522  1514  1515  1508  1504  1506  1506  1505  1500  1499  1502  1501  1503  1502  1504  1513  1520  1520  1513  1502  1506  1513
1429  1435  1448  1456  1467  1466  1468  1472  1473  1478  1486  1490  1483  1471  1451  1436  1418  1418  1427  1433  1464  1485  1508  1514  1518  1511  1479  1471  1452  1441  1437  1436  1437  1450  1463  1467  1472  1482  1488  1493  1493  1488  1481  1473  1459  1456  1455  1456  1459  1459  1457  1463  1469  1470  1457  1453  1448  1440  1431  1429  1433  1432  1453  1467  1480  1491  1493  1487  1473  1463  1451  1441  1433  1428  1423  1437  1453  1466  1474  1475  1478  1479  1475  1463  1464  1464  1472  1475  1474  1473  1473  1467  1458  1450  1444  1444  1447  1447  1444  1440  1436  1435  1437  1439  1447  1454  1459  1462  1462  1467  1476  1482  1487  1490  1491  1486  1479  1472  1468  1464  1460  1456  1448  1442  1439  1435  1433  1433  1430  1429  1430  1435  1439  1437  1437  1439  1438  1438  1440  1441  1440  1433  1429  1431  1439  1441  1439  1438  1436  1436  1436  1435  1439  1446  1447  1438  1445  1442  1440  1447  1464  1473  1478  1480  1479  1481  1485  1487  1483  1478  1472  1467  1461  1455  1455  1450  1445  1450  1452  1455  1459  1464  1468  1468  1475  1483  1496  1505  1514  1524  1527  1537  1537  1527  1515  1502  1486  1470  1461  1456  1451  1450  1449  1452  1458  1463  1476  1489  1505  1520  1525  1546  1560  1560  1564  1552  1537  1523  1513  1507  1500  1505  1509  1510  1517  1524  1524  1519  1516  1513  1508  1503  1502  1504  1503  1502  1504  1502  1505  1508  1514  1520  1530  1538  1542  1539  1528  1514  1512  1521
1438  1442  1454  1461  1466  1465  1459  1461  1465  1471  1488  1483  1482  1476  1472  1437  1421  1421  1424  1437  1470  1492  1508  1519  1517  1515  1493  1471  1446  1443  1438  1441  1448  1454  1465  1477  1487  1489  1491  1493  1494  1487  1480  1474  1467  1459  1461  1465  1469  1465  1459  1461  1467  1473  1472  1467  1463  1457  1442  1433  1428  1431  1448  1472  1470  1477  1486  1488  1483  1472  1460  1445  1437  1429  1436  1440  1457  1471  1475  1483  1488  1489  1482  1477  1470  1474  1479  1484  1486  1485  1482  1477  1471  1461  1451  1446  1446  1447  1446  1441  1435  1436  1438  1440  1446  1450  1455  1463  1467  1475  1483  1490  1495  1496  1493  1485  1481  1475  1468  1463  1460  1459  1454  1446  1442  1439  1435  1432  1429  1428  1432  1436  1440  1439  1440  1442  1440  1437  1438  1441  1444  1435  1427  1431  1435  1440  1439  1437  1437  1437  1436  1435  1439  1444  1446  1439  1440  1441  1444  1451  1459  1470  1475  1476  1478  1482  1483  1481  1480  1480  1476  1474  1471  1464  1458  1453  1450  1446  1448  1449  1455  1459  1466  1466  1475  1488  1496  1508  1513  1521  1527  1529  1530  1531  1520  1508  1493  1477  1466  1458  1451  1451  1450  1453  1451  1461  1479  1500  1509  1525  1539  1553  1560  1568  1563  1552  1539  1523  1520  1507  1505  1513  1514  1519  1519  1520  1518  1520  1514  1510  1503  1502  1502  1502  1502  1506  1511  1513  1526  1535  1541  1550  1555  1561  1567  1563  1549  1537  1533  1547
1450  1454  1457  1456  1455  1457  1456  1458  1463  1469  1483  1486  1480  1485  1468  1441  1429  1427  1433  1444  1469  1490  1504  1520  1520  1518  1498  1470  1460  1439  1445  1448  1454  1454  1469  1490  1493  1500  1497  1495  1495  1490  1481  1474  1469  1471  1471  1473  1473  1469  1465  1465  1469  1478  1488  1482  1479  1464  1453  1441  1434  1443  1453  1467  1476  1478  1487  1485  1477  1466  1454  1443  1431  1429  1434  1451  1463  1470  1476  1484  1488  1489  1485  1480  1477  1485  1491  1499  1494  1491  1490  1486  1480  1468  1457  1454  1450  1447  1444  1439  1436  1434  1437  1438  1441  1446  1452  1461  1467  1477  1484  1489  1492  1491  1490  1483  1477  1474  1467  1462  1461  1459  1457  1450  1444  1441  1438  1434  1432  1431  1433  1436  1440  1436  1443  1444  1438  1438  1441  1441  1441  1438  1433  1430  1429  1434  1437  1434  1432  1434  1435  1436  1440  1443  1442  1438  1441  1435  1439  1443  1456  1462  1466  1473  1480  1480  1484  1482  1479  1477  1476  1472  1473  1470  1467  1460  1453  1447  1447  1449  1454  1458  1464  1471  1478  1485  1495  1501  1512  1517  1523  1526  1529  1524  1518  1508  1495  1484  1474  1467  1459  1455  1454  1456  1453  1458  1477  1496  1513  1529  1546  1555  1558  1563  1556  1547  1537  1530  1519  1517  1514  1510  1514  1515  1515  1516  1513  1511  1508  1505  1502  1499  1502  1506  1510  1518  1525  1537  1548  1554  1568  1569  1570  1571  1572  1569  1566  1560  1558  1564
1456  1462  1465  1464  1459  1456  1454  1450  1460  1472  1480  1483  1485  1486  1472  1448  1433  1428  1427  1434  1456  1474  1502  1513  1520  1512  1494  1472  1462  1456  1453  1452  1455  1461  1469  1485  1495  1498  1500  1499  1494  1491  1481  1476  1479  1483  1487  1489  1487  1483  1476  1474  1476  1484  1491  1486  1482  1474  1462  1448  1446  1448  1455  1468  1473  1486  1486  1478  1480  1467  1458  1450  1440  1435  1435  1450  1463  1471  1479  1483  1491  1494  1494  1493  1493  1501  1511  1513  1505  1501  1496  1493  1492  1483  1470  1463  1456  1450  1443  1438  1435  1438  1438  1436  1437  1442  1452  1460  1469  1476  1483  1486  1486  1487  1486  1482  1476  1474  1474  1467  1465  1465  1464  1459  1454  1446  1441  1436  1435  1434  1436  1436  1435  1437  1438  1441  1437  1437  1438  1440  1439  1437  1432  1424  1429  1429  1431  1434  1432  1433  1437  1439  1441  1442  1439  1438  1436  1436  1437  1440  1446  1451  1458  1467  1479  1481  1478  1479  1480  1473  1471  1479  1479  1479  1475  1464  1460  1450  1449  1446  1449  1452  1457  1464  1472  1477  1490  1496  1505  1514  1517  1518  1521  1520  1519  1507  1497  1489  1480  1476  1466  1461  1457  1458  1457  1455  1471  1492  1514  1529  1540  1548  1551  1550  1551  1549  1543  1529  1529  1520  1517  1512  1508  1504  1508  1510  1510  1504  1501  1504  1504  1505  1507  1513  1521  1535  1543  1550  1555  1565  1571  1575  1576  1578  1581  1580  1574  1569  1566  1571
1464  1464  1468  1471  1471  1455  1447  1447  1457  1474  1477  1487  1489  1487  1482  1473  1433  1425  1427  1431  1435  1463  1488  1507  1511  1499  1488  1471  1466  1461  1459  1458  1460  1463  1473  1489  1488  1500  1504  1500  1496  1491  1486  1484  1489  1498  1504  1501  1499  1497  1489  1483  1483  1489  1487  1487  1486  1481  1469  1458  1454  1455  1462  1473  1479  1486  1493  1493  1484  1472  1462  1455  1435  1429  1432  1441  1459  1469  1475  1483  1494  1500  1506  1505  1512  1517  1519  1518  1517  1503  1498  1493  1486  1486  1481  1471  1464  1455  1445  1440  1437  1436  1436  1436  1435  1440  1451  1459  1467  1474  1479  1481  1480  1479  1479  1477  1475  1476  1480  1479  1477  1475  1472  1465  1458  1451  1449  1444  1439  1435  1434  1435  1435  1438  1438  1438  1437  1438  1438  1435  1434  1436  1430  1427  1433  1432  1438  1435  1433  1434  1438  1441  1440  1440  1439  1438  1437  1437  1437  1438  1442  1446  1451  1459  1469  1474  1475  1473  1473  1478  1479  1482  1482  1478  1484  1479  1468  1463  1459  1454  1451  1447  1447  1453  1467  1473  1489  1498  1500  1505  1509  1514  1519  1517  1517  1506  1497  1489  1481  1475  1465  1460  1458  1456  1457  1458  1471  1498  1521  1526  1531  1538  1537  1547  1551  1542  1539  1534  1529  1522  1516  1508  1504  1502  1504  1500  1499  1500  1500  1504  1506  1511  1514  1523  1534  1544  1547  1554  1560  1566  1573  1580  1584  1589  1591  1589  1584  1585  1579  1579
1474  1471  1470  1473  1478  1467  1453  1448  1452  1465  1471  1479  1490  1494  1486  1466  1441  1428  1424  1424  1428  1437  1464  1487  1494  1490  1485  1476  1466  1463  1460  1462  1461  1468  1482  1487  1491  1498  1510  1506  1508  1497  1497  1498  1500  1510  1517  1518  1515  1507  1498  1495  1500  1492  1492  1500  1496  1489  1477  1469  1468  1469  1470  1477  1487  1495  1496  1496  1486  1473  1462  1450  1438  1430  1429  1434  1444  1461  1473  1485  1493  1506  1503  1510  1509  1512  1515  1510  1504  1501  1490  1487  1486  1484  1482  1477  1469  1461  1454  1446  1441  1438  1437  1437  1436  1438  1445  1452  1462  1472  1476  1476  1476  1476  1475  1476  1481  1486  1488  1487  1485  1483  1480  1472  1466  1461  1457  1451  1447  1443  1439  1436  1436  1437  1438  1438  1438  1437  1439  1440  1436  1436  1441  1437  1439  1436  1437  1436  1436  1435  1435  1439  1444  1446  1444  1436  1435  1440  1440  1439  1443  1441  1443  1452  1460  1464  1465  1466  1472  1480  1485  1492  1488  1491  1493  1491  1479  1470  1467  1464  1459  1453  1447  1452  1464  1471  1479  1487  1493  1493  1498  1507  1516  1520  1515  1511  1502  1492  1477  1471  1464  1461  1459  1460  1460  1463  1461  1495  1511  1521  1520  1526  1532  1533  1525  1532  1530  1527  1527  1521  1517  1505  1502  1500  1500  1498  1499  1502  1503  1510  1511  1519  1524  1536  1544  1550  1555  1563  1568  1571  1572  1577  1585  1593  1596  1594  1591  1587  1582  1579
1472  1473  1472  1481  1478  1468  1458  1452  1451  1460  1474  1486  1496  1496  1477  1465  1449  1439  1421  1427  1426  1426  1446  1467  1481  1484  1488  1480  1476  1470  1466  1461  1466  1481  1491  1496  1502  1513  1523  1525  1508  1507  1504  1503  1507  1522  1526  1529  1525  1518  1513  1511  1511  1505  1502  1511  1505  1497  1487  1484  1484  1476  1483  1485  1493  1502  1506  1497  1489  1476  1466  1453  1441  1431  1430  1432  1442  1451  1464  1477  1490  1493  1500  1500  1494  1497  1500  1503  1489  1490  1487  1484  1483  1480  1471  1472  1475  1470  1459  1453  1448  1442  1437  1434  1433  1434  1438  1444  1453  1462  1467  1467  1471  1470  1470  1474  1480  1493  1494  1492  1490  1490  1487  1478  1473  1468  1466  1459  1453  1450  1446  1442  1439  1438  1436  1437  1439  1438  1438  1439  1442  1440  1437  1438  1439  1435  1431  1434  1440  1439  1439  1438  1441  1445  1444  1442  1442  1447  1448  1451  1444  1442  1439  1449  1453  1456  1459  1462  1471  1482  1490  1494  1495  1497  1495  1492  1483  1472  1472  1469  1467  1461  1459  1459  1463  1468  1476  1480  1483  1488  1500  1513  1522  1523  1520  1515  1500  1493  1483  1469  1465  1463  1459  1457  1458  1456  1464  1484  1500  1507  1519  1524  1531  1523  1518  1518  1519  1519  1519  1518  1511  1501  1495  1500  1505  1507  1510  1511  1510  1517  1523  1529  1532  1537  1547  1550  1558  1565  1568  1565  1567  1572  1583  1595  1599  1594  1591  1586  1576  1570
1481  1484  1485  1490  1492  1477  1469  1459  1457  1469  1475  1491  1495  1493  1484  1472  1458  1449  1435  1427  1426  1428  1438  1450  1468  1482  1491  1491  1480  1476  1470  1472  1474  1486  1500  1509  1518  1521  1528  1528  1520  1506  1513  1509  1517  1531  1536  1535  1531  1528  1525  1526  1525  1520  1513  1516  1515  1510  1504  1498  1491  1495  1491  1491  1499  1506  1507  1504  1490  1480  1473  1464  1449  1435  1424  1431  1434  1446  1456  1467  1471  1478  1492  1498  1493  1492  1493  1493  1487  1488  1486  1480  1478  1473  1471  1478  1476  1474  1470  1463  1452  1449  1441  1435  1433  1433  1434  1439  1445  1453  1456  1456  1457  1462  1469  1470  1480  1492  1496  1496  1496  1495  1490  1482  1479  1478  1475  1470  1462  1456  1453  1450  1443  1438  1434  1436  1438  1438  1438  1441  1443  1438  1435  1435  1436  1436  1433  1439  1444  1442  1439  1436  1436  1441  1445  1448  1454  1458  1457  1460  1455  1445  1444  1448  1448  1449  1454  1459  1472  1477  1487  1493  1497  1497  1494  1479  1471  1467  1467  1464  1462  1458  1458  1456  1461  1468  1474  1475  1484  1501  1509  1517  1526  1522  1521  1510  1501  1492  1483  1470  1465  1462  1461  1460  1461  1458  1462  1477  1495  1501  1521  1529  1532  1525  1515  1513  1506  1508  1511  1513  1505  1496  1493  1501  1512  1516  1520  1525  1525  1530  1539  1537  1535  1540  1541  1546  1553  1558  1561  1563  1566  1574  1581  1588  1590  1586  1585  1579  1569  1564
1490  1497  1501  1498  1497  1497  1487  1473  1472  1473  1482  1486  1489  1489  1485  1478  1465  1452  1442  1437  1433  1430  1434  1441  1447  1480  1497  1492  1496  1487  1477  1478  1483  1488  1494  1517  1527  1538  1540  1534  1526  1514  1511  1513  1521  1533  1539  1537  1532  1531  1532  1531  1534  1532  1527  1526  1522  1520  1516  1510  1505  1499  1494  1497  1500  1502  1504  1501  1497  1486  1479  1471  1459  1440  1428  1425  1431  1441  1448  1453  1462  1469  1477  1491  1491  1489  1492  1479  1481  1478  1477  1476  1472  1468  1468  1474  1477  1478  1472  1465  1454  1448  1443  1434  1432  1432  1434  1437  1440  1445  1448  1450  1452  1459  1468  1471  1475  1484  1492  1496  1498  1495  1489  1484  1484  1487  1488  1482  1473  1466  1459  1454  1448  1442  1439  1437  1438  1437  1438  1440  1442  1436  1435  1435  1437  1442  1444  1441  1445  1448  1443  1440  1441  1443  1448  1457  1465  1469  1474  1474  1468  1458  1448  1447  1444  1444  1449  1457  1473  1482  1487  1490  1494  1486  1486  1474  1470  1465  1463  1464  1461  1458  1456  1457  1458  1463  1470  1479  1490  1496  1507  1518  1523  1521  1514  1505  1500  1493  1478  1469  1466  1461  1464  1462  1458  1460  1458  1475  1488  1503  1516  1523  1530  1523  1514  1505  1506  1508  1511  1505  1503  1499  1498  1500  1517  1531  1537  1537  1537  1542  1541  1538  1535  1533  1534  1536  1546  1551  1555  1563  1568  1575  1580  1581  1582  1580  1579  1573  1566  1557
1499  1506  1512  1510  1504  1505  1503  1491  1481  1477  1480  1481  1482  1482  1481  1475  1464  1455  1449  1446  1442  1438  1439  1444  1448  1480  1490  1495  1492  1488  1482  1484  1484  1495  1506  1523  1531  1538  1537  1532  1526  1514  1513  1515  1522  1523  1528  1541  1542  1541  1542  1543  1541  1540  1530  1524  1524  1525  1521  1518  1515  1508  1503  1499  1499  1505  1509  1506  1492  1488  1482  1475  1460  1442  1429  1427  1434  1439  1439  1445  1456  1466  1474  1481  1487  1486  1478  1469  1471  1474  1473  1472  1465  1463  1463  1469  1476  1481  1479  1475  1467  1449  1444  1437  1434  1434  1437  1438  1439  1442  1445  1446  1449  1453  1461  1465  1470  1482  1488  1490  1490  1490  1491  1486  1485  1491  1494  1492  1484  1479  1469  1458  1452  1451  1446  1442  1441  1440  1440  1439  1440  1438  1438  1438  1438  1444  1445  1446  1449  1450  1446  1442  1443  1451  1459  1469  1473  1476  1479  1476  1472  1468  1458  1453  1447  1446  1450  1455  1467  1473  1483  1492  1491  1481  1474  1474  1472  1466  1459  1460  1462  1457  1452  1451  1456  1465  1466  1478  1487  1496  1504  1508  1512  1515  1516  1507  1503  1493  1488  1475  1471  1467  1468  1465  1460  1459  1459  1473  1490  1496  1507  1520  1523  1521  1514  1506  1504  1506  1503  1503  1501  1498  1504  1506  1529  1544  1550  1552  1544  1543  1538  1532  1528  1523  1523  1524  1530  1540  1548  1564  1568  1576  1582  1579  1574  1574  1571  1568  1557  1550
1505  1509  1515  1509  1508  1507  1509  1502  1494  1483  1484  1479  1473  1473  1470  1466  1460  1458  1455  1449  1444  1439  1441  1443  1450  1474  1490  1493  1495  1490  1483  1487  1493  1499  1503  1516  1536  1541  1534  1535  1522  1519  1512  1514  1519  1520  1524  1531  1543  1545  1544  1549  1542  1538  1536  1533  1527  1525  1522  1524  1523  1515  1508  1499  1496  1506  1505  1499  1492  1485  1480  1470  1461  1448  1436  1428  1426  1434  1437  1437  1438  1456  1466  1472  1482  1477  1471  1464  1462  1463  1466  1467  1465  1464  1469  1472  1480  1484  1480  1476  1460  1453  1446  1439  1436  1435  1436  1435  1439  1441  1443  1448  1448  1447  1451  1458  1465  1474  1484  1488  1485  1484  1488  1486  1485  1490  1496  1497  1491  1486  1478  1465  1457  1453  1448  1446  1445  1443  1440  1441  1441  1439  1439  1439  1438  1443  1447  1448  1451  1449  1446  1448  1455  1462  1469  1474  1478  1482  1491  1490  1489  1473  1470  1462  1455  1449  1446  1449  1456  1465  1476  1479  1480  1478  1474  1473  1472  1466  1458  1462  1461  1458  1453  1449  1451  1460  1465  1475  1482  1486  1494  1498  1508  1516  1518  1519  1510  1499  1487  1483  1479  1477  1473  1464  1461  1462  1462  1477  1493  1499  1506  1520  1519  1514  1512  1508  1505  1501  1496  1496  1497  1502  1513  1530  1546  1551  1553  1552  1546  1536  1529  1526  1521  1520  1519  1518  1521  1524  1541  1559  1564  1565  1571  1566  1566  1562  1557  1556  1556  1556
1502  1512  1515  1517  1516  1518  1520  1518  1507  1499  1490  1478  1471  1463  1467  1464  1459  1455  1450  1446  1444  1438  1441  1447  1463  1474  1491  1501  1495  1493  1491  1494  1503  1509  1512  1522  1538  1539  1529  1522  1520  1519  1515  1519  1514  1521  1523  1529  1533  1530  1539  1539  1537  1539  1534  1530  1526  1529  1533  1534  1530  1519  1510  1499  1496  1492  1494  1494  1490  1489  1481  1477  1469  1459  1450  1436  1430  1433  1434  1431  1433  1445  1459  1466  1472  1474  1468  1459  1456  1458  1464  1465  1466  1467  1474  1480  1487  1488  1482  1472  1463  1456  1446  1442  1440  1438  1435  1436  1439  1442  1445  1446  1445  1444  1450  1454  1459  1467  1477  1484  1481  1485  1486  1480  1477  1481  1489  1497  1495  1491  1484  1472  1458  1452  1449  1448  1448  1446  1444  1443  1443  1439  1437  1436  1437  1441  1448  1452  1454  1454  1454  1461  1469  1473  1478  1482  1487  1492  1499  1499  1488  1486  1476  1471  1460  1450  1444  1450  1453  1455  1458  1466  1471  1474  1473  1471  1467  1461  1458  1461  1466  1464  1461  1456  1455  1462  1465  1473  1482  1483  1489  1502  1515  1521  1523  1518  1506  1489  1483  1478  1476  1472  1467  1462  1459  1465  1468  1482  1500  1501  1509  1519  1518  1507  1507  1505  1503  1498  1495  1499  1502  1511  1536  1552  1555  1556  1552  1547  1536  1525  1519  1518  1509  1508  1510  1510  1514  1517  1530  1552  1563  1558  1563  1557  1556  1554  1550  1552  1553  1547
1510  1517  1522  1525  1528  1529  1530  1530  1522  1513  1497  1481  1471  1466  1466  1460  1456  1452  1447  1446  1441  1441  1447  1461  1468  1479  1491  1498  1502  1495  1501  1507  1515  1518  1523  1534  1536  1533  1529  1523  1520  1522  1518  1523  1516  1520  1519  1522  1521  1522  1525  1526  1527  1526  1525  1528  1536  1539  1542  1541  1538  1523  1514  1504  1496  1499  1498  1502  1496  1491  1490  1488  1480  1468  1459  1443  1437  1432  1431  1429  1426  1438  1450  1456  1459  1463  1463  1456  1460  1458  1463  1464  1468  1476  1476  1482  1486  1486  1484  1475  1466  1456  1448  1443  1441  1437  1435  1437  1443  1444  1443  1445  1445  1447  1444  1448  1452  1460  1470  1477  1482  1483  1484  1476  1469  1473  1480  1491  1492  1491  1486  1477  1466  1462  1457  1454  1453  1448  1445  1444  1438  1436  1435  1437  1438  1441  1448  1454  1460  1461  1461  1468  1474  1478  1481  1482  1486  1494  1502  1501  1493  1490  1485  1475  1466  1455  1450  1450  1450  1453  1454  1456  1462  1464  1466  1464  1464  1459  1456  1461  1470  1470  1464  1461  1459  1461  1463  1472  1481  1487  1494  1503  1510  1524  1521  1507  1488  1476  1473  1468  1470  1463  1460  1461  1464  1469  1480  1490  1503  1512  1526  1522  1518  1513  1513  1508  1504  1500  1494  1502  1509  1524  1543  1554  1555  1553  1546  1539  1528  1518  1515  1511  1505  1503  1503  1504  1507  1513  1524  1549  1560  1557  1559  1548  1537  1542  1544  1549  1548  1533
1514  1527  1528  1531  1534  1536  1537  1536  1528  1519  1504  1485  1477  1475  1470  1458  1454  1448  1448  1449  1448  1451  1463  1474  1480  1482  1491  1496  1496  1495  1508  1519  1525  1528  1532  1532  1532  1532  1528  1522  1518  1514  1516  1513  1506  1510  1512  1513  1515  1518  1519  1518  1521  1523  1523  1530  1540  1545  1548  1546  1542  1530  1514  1500  1492  1494  1500  1503  1496  1494  1490  1485  1477  1468  1460  1451  1441  1434  1434  1433  1430  1432  1438  1441  1449  1451  1450  1450  1455  1459  1465  1465  1465  1474  1475  1479  1483  1484  1481  1475  1469  1460  1453  1446  1443  1436  1439  1443  1447  1445  1446  1448  1448  1447  1441  1439  1443  1453  1465  1472  1475  1476  1478  1475  1470  1463  1467  1478  1487  1487  1488  1486  1478  1471  1465  1466  1465  1458  1449  1443  1442  1439  1436  1437  1437  1438  1444  1455  1456  1456  1460  1464  1469  1473  1474  1479  1486  1494  1498  1493  1488  1485  1484  1479  1473  1464  1459  1458  1452  1455  1454  1456  1457  1458  1457  1458  1459  1454  1454  1460  1462  1463  1466  1465  1462  1462  1465  1472  1479  1486  1495  1496  1506  1508  1506  1491  1483  1474  1461  1459  1459  1459  1457  1461  1466  1471  1482  1495  1507  1517  1529  1526  1522  1516  1515  1515  1506  1499  1498  1502  1517  1529  1538  1545  1553  1549  1541  1534  1522  1516  1512  1509  1510  1512  1511  1509  1506  1526  1537  1547  1562  1557  1552  1543  1536  1539  1541  1539  1535  1526
1518  1532  1533  1532  1535  1539  1540  1538  1533  1526  1514  1499  1485  1478  1468  1464  1457  1454  1450  1448  1448  1453  1469  1481  1487  1486  1500  1493  1500  1499  1517  1525  1529  1529  1527  1519  1520  1521  1521  1513  1510  1512  1506  1502  1499  1500  1502  1504  1508  1510  1511  1511  1514  1521  1529  1543  1544  1547  1552  1550  1542  1524  1506  1490  1484  1479  1476  1480  1488  1490  1486  1481  1471  1462  1457  1451  1445  1440  1437  1434  1431  1428  1433  1439  1447  1448  1450  1449  1451  1459  1463  1465  1468  1472  1473  1478  1483  1481  1477  1474  1468  1464  1457  1449  1445  1438  1439  1441  1447  1447  1452  1455  1451  1445  1437  1436  1438  1447  1457  1465  1467  1467  1470  1475  1468  1462  1464  1469  1478  1483  1490  1492  1487  1479  1473  1472  1469  1463  1456  1450  1445  1440  1439  1439  1438  1437  1439  1442  1447  1451  1453  1456  1461  1465  1469  1478  1483  1487  1490  1485  1482  1489  1489  1483  1476  1473  1470  1468  1464  1460  1457  1454  1455  1455  1454  1453  1452  1452  1450  1454  1454  1465  1464  1461  1460  1462  1466  1468  1479  1485  1490  1492  1495  1500  1499  1488  1475  1466  1461  1458  1457  1456  1460  1465  1471  1474  1481  1489  1510  1523  1529  1530  1525  1523  1515  1511  1502  1499  1492  1504  1522  1530  1535  1540  1548  1537  1527  1521  1515  1509  1507  1511  1521  1524  1527  1531  1524  1536  1545  1564  1566  1563  1553  1549  1537  1532  1534  1537  1535  1540
1509  1524  1529  1533  1534  1537  1540  1539  1531  1525  1519  1508  1491  1481  1471  1470  1462  1458  1451  1449  1447  1451  1468  1485  1488  1491  1497  1494  1498  1503  1519  1528  1530  1527  1523  1521  1512  1514  1512  1507  1505  1502  1498  1495  1495  1496  1502  1497  1498  1498  1507  1507  1513  1526  1534  1540  1544  1547  1554  1551  1539  1523  1499  1480  1475  1477  1478  1475  1486  1488  1486  1480  1470  1463  1460  1458  1457  1452  1446  1437  1434  1432  1435  1442  1447  1449  1451  1452  1455  1457  1458  1463  1469  1472  1471  1473  1476  1474  1474  1472  1469  1469  1462  1453  1445  1444  1442  1442  1447  1453  1455  1459  1455  1447  1442  1439  1438  1441  1452  1456  1456  1458  1461  1461  1459  1459  1458  1460  1469  1483  1493  1492  1488  1479  1475  1473  1467  1462  1457  1451  1444  1439  1438  1439  1439  1438  1440  1441  1441  1443  1446  1449  1452  1457  1462  1467  1473  1474  1479  1478  1477  1483  1487  1480  1477  1472  1475  1474  1471  1465  1459  1458  1460  1459  1455  1451  1449  1448  1453  1453  1456  1457  1466  1462  1459  1460  1465  1467  1472  1479  1486  1486  1489  1495  1494  1488  1474  1467  1464  1459  1459  1463  1469  1475  1481  1481  1487  1506  1519  1530  1536  1535  1528  1522  1513  1507  1500  1497  1492  1501  1516  1526  1537  1544  1543  1532  1526  1518  1516  1513  1512  1518  1529  1538  1540  1542  1543  1553  1562  1566  1569  1565  1555  1545  1530  1532  1533  1536  1541  1540
1502  1513  1524  1529  1536  1537  1538  1532  1530  1521  1517  1509  1496  1485  1479  1472  1466  1459  1451  1450  1449  1454  1463  1480  1489  1488  1490  1491  1493  1499  1513  1525  1525  1526  1524  1516  1512  1509  1504  1503  1507  1506  1502  1501  1504  1505  1504  1503  1502  1503  1504  1504  1516  1533  1532  1537  1543  1549  1553  1543  1531  1513  1497  1482  1475  1475  1476  1478  1485  1487  1487  1483  1473  1468  1469  1468  1465  1457  1446  1438  1437  1436  1441  1442  1442  1445  1446  1455  1460  1460  1462  1464  1469  1471  1468  1467  1471  1471  1472  1471  1470  1471  1468  1458  1449  1445  1446  1445  1448  1456  1459  1462  1464  1459  1453  1448  1443  1442  1444  1444  1443  1446  1450  1451  1453  1455  1456  1458  1466  1481  1491  1489  1482  1474  1472  1467  1462  1462  1461  1457  1448  1441  1440  1442  1442  1440  1441  1442  1444  1444  1444  1446  1449  1450  1450  1454  1463  1464  1467  1471  1476  1478  1480  1476  1476  1479  1481  1479  1475  1472  1466  1463  1466  1466  1462  1453  1449  1448  1452  1451  1450  1456  1465  1468  1464  1460  1461  1461  1464  1468  1477  1485  1491  1495  1489  1488  1480  1477  1468  1462  1462  1468  1477  1491  1498  1499  1503  1511  1535  1540  1540  1535  1527  1519  1513  1508  1504  1493  1490  1495  1510  1514  1530  1541  1538  1535  1528  1520  1516  1516  1518  1523  1538  1542  1549  1554  1558  1564  1567  1569  1570  1565  1553  1542  1532  1531  1523  1525  1523  1529
1502  1512  1523  1527  1533  1532  1527  1519  1524  1521  1513  1505  1501  1491  1479  1468  1459  1457  1455  1451  1453  1453  1460  1472  1480  1480  1486  1489  1487  1497  1515  1521  1523  1524  1523  1514  1506  1500  1496  1497  1506  1511  1515  1518  1517  1518  1514  1514  1513  1506  1505  1506  1508  1518  1534  1533  1540  1545  1542  1536  1522  1501  1492  1480  1474  1477  1477  1481  1486  1487  1493  1491  1480  1476  1477  1477  1468  1462  1442  1438  1440  1439  1442  1439  1440  1442  1449  1455  1460  1456  1456  1459  1462  1467  1466  1463  1464  1468  1471  1473  1474  1474  1468  1458  1452  1445  1442  1446  1450  1455  1460  1471  1473  1471  1463  1456  1450  1447  1444  1438  1438  1441  1442  1445  1449  1454  1458  1459  1468  1479  1485  1487  1473  1468  1468  1464  1460  1459  1456  1458  1450  1444  1442  1441  1441  1441  1442  1446  1452  1454  1452  1450  1446  1443  1445  1450  1454  1456  1459  1466  1471  1476  1475  1478  1483  1485  1488  1487  1482  1477  1470  1470  1473  1473  1471  1467  1462  1459  1453  1454  1459  1455  1467  1474  1470  1465  1461  1462  1463  1465  1473  1487  1488  1500  1499  1492  1484  1476  1468  1464  1467  1475  1487  1497  1508  1511  1517  1528  1540  1541  1541  1538  1529  1518  1511  1505  1504  1495  1493  1496  1505  1510  1528  1541  1535  1528  1525  1519  1512  1510  1509  1517  1538  1542  1550  1555  1562  1566  1566  1569  1567  1559  1552  1544  1533  1529  1525  1517  1521  1516
1506  1521  1523  1528  1527  1521  1517  1519  1520  1516  1513  1505  1496  1487  1473  1473  1459  1456  1457  1456  1452  1453  1461  1467  1471  1473  1478  1482  1498  1513  1521  1526  1525  1526  1521  1510  1501  1497  1495  1497  1510  1522  1528  1525  1530  1530  1527  1522  1517  1516  1514  1516  1507  1508  1517  1526  1532  1530  1536  1528  1518  1505  1487  1475  1470  1470  1472  1475  1480  1487  1493  1494  1493  1496  1495  1495  1484  1466  1452  1448  1444  1441  1441  1442  1445  1446  1454  1454  1455  1455  1454  1456  1462  1467  1468  1465  1465  1467  1471  1477  1479  1475  1467  1461  1452  1447  1443  1446  1451  1446  1454  1472  1480  1479  1474  1467  1456  1448  1443  1440  1438  1439  1440  1444  1446  1450  1457  1463  1471  1481  1487  1483  1475  1468  1466  1464  1461  1460  1452  1456  1453  1447  1444  1442  1439  1438  1439  1447  1456  1462  1463  1458  1449  1445  1447  1449  1451  1451  1455  1460  1466  1469  1472  1480  1484  1485  1490  1492  1489  1483  1479  1480  1480  1478  1477  1478  1470  1462  1450  1451  1453  1457  1461  1469  1477  1475  1474  1466  1467  1472  1476  1482  1487  1494  1495  1494  1486  1477  1471  1467  1469  1481  1498  1509  1521  1530  1533  1532  1539  1537  1537  1536  1525  1514  1506  1503  1497  1492  1493  1500  1513  1523  1531  1537  1530  1525  1521  1513  1509  1501  1504  1522  1534  1541  1543  1549  1556  1560  1563  1563  1561  1559  1552  1545  1536  1521  1519  1521  1518  1517
1521  1527  1528  1527  1524  1518  1514  1519  1519  1519  1516  1511  1497  1487  1485  1469  1456  1451  1451  1462  1462  1464  1468  1470  1473  1478  1485  1492  1510  1521  1529  1531  1531  1526  1521  1511  1502  1500  1500  1507  1520  1538  1534  1539  1540  1540  1542  1537  1530  1527  1522  1514  1511  1511  1512  1525  1528  1526  1526  1523  1518  1503  1485  1475  1471  1466  1464  1466  1472  1483  1490  1496  1501  1507  1508  1503  1496  1475  1464  1453  1450  1444  1436  1437  1442  1442  1445  1450  1451  1455  1455  1461  1465  1469  1470  1470  1466  1466  1472  1473  1478  1471  1466  1460  1455  1450  1445  1442  1447  1445  1450  1471  1487  1488  1480  1472  1461  1452  1449  1447  1445  1443  1441  1442  1442  1446  1461  1471  1473  1482  1484  1483  1476  1467  1466  1464  1461  1459  1454  1452  1448  1446  1443  1442  1440  1441  1445  1455  1467  1472  1474  1470  1460  1454  1453  1455  1454  1453  1454  1455  1459  1462  1468  1476  1482  1482  1487  1491  1489  1487  1485  1489  1487  1484  1484  1482  1481  1467  1459  1449  1451  1456  1459  1465  1484  1480  1478  1478  1475  1475  1482  1486  1492  1498  1500  1493  1484  1476  1469  1464  1471  1489  1505  1515  1532  1535  1542  1540  1540  1538  1535  1527  1521  1510  1502  1500  1494  1492  1495  1510  1526  1539  1536  1535  1531  1525  1518  1508  1502  1499  1506  1521  1532  1538  1540  1542  1552  1558  1562  1559  1557  1558  1551  1540  1529  1520  1525  1524  1518  1511
1521  1529  1529  1521  1515  1513  1514  1513  1513  1510  1517  1516  1506  1496  1481  1473  1464  1459  1459  1472  1472  1482  1475  1474  1477  1482  1495  1509  1521  1529  1530  1530  1525  1530  1518  1506  1505  1507  1508  1517  1533  1543  1547  1551  1552  1551  1555  1547  1537  1538  1530  1519  1516  1513  1510  1513  1519  1524  1529  1527  1510  1498  1483  1472  1471  1463  1457  1463  1473  1479  1483  1488  1503  1508  1510  1509  1495  1476  1469  1460  1457  1446  1442  1436  1434  1434  1439  1449  1452  1457  1460  1467  1471  1472  1472  1472  1468  1464  1466  1473  1478  1470  1464  1460  1459  1456  1448  1442  1448  1452  1455  1470  1487  1487  1481  1475  1466  1456  1455  1452  1452  1449  1444  1442  1442  1448  1466  1480  1486  1486  1491  1481  1473  1469  1468  1465  1463  1457  1453  1451  1449  1448  1442  1440  1437  1438  1444  1460  1474  1476  1483  1480  1474  1469  1466  1463  1457  1459  1459  1458  1457  1457  1463  1472  1476  1481  1482  1486  1492  1498  1496  1496  1495  1493  1490  1489  1484  1473  1463  1453  1452  1446  1454  1463  1478  1481  1482  1486  1488  1488  1488  1490  1493  1494  1490  1485  1477  1465  1469  1464  1472  1494  1510  1518  1530  1544  1545  1540  1533  1529  1525  1521  1512  1501  1498  1498  1502  1498  1503  1519  1536  1544  1543  1535  1533  1526  1519  1509  1505  1502  1508  1518  1525  1533  1533  1534  1545  1557  1561  1561  1559  1551  1542  1530  1519  1515  1522  1519  1516  1512
1513  1513  1514  1507  1502  1505  1507  1504  1504  1510  1511  1513  1512  1507  1486  1478  1472  1468  1471  1481  1484  1488  1484  1480  1486  1492  1510  1517  1535  1540  1533  1527  1529  1526  1506  1509  1502  1508  1517  1531  1539  1552  1562  1564  1565  1565  1564  1556  1546  1545  1537  1529  1526  1517  1517  1520  1519  1522  1528  1518  1506  1496  1480  1472  1465  1457  1450  1457  1467  1476  1482  1493  1505  1512  1512  1508  1501  1492  1472  1466  1449  1440  1441  1435  1427  1432  1438  1445  1458  1456  1461  1469  1473  1471  1468  1469  1473  1466  1467  1474  1475  1472  1471  1469  1467  1462  1454  1448  1447  1448  1455  1472  1483  1482  1480  1474  1468  1466  1464  1460  1458  1453  1447  1446  1443  1450  1468  1485  1496  1494  1492  1487  1485  1477  1471  1464  1459  1461  1457  1453  1449  1448  1445  1442  1439  1437  1441  1456  1469  1480  1486  1485  1483  1483  1477  1474  1468  1467  1467  1465  1462  1459  1460  1467  1472  1479  1483  1488  1500  1505  1507  1505  1502  1499  1497  1495  1491  1480  1472  1461  1454  1447  1449  1461  1474  1479  1490  1494  1499  1498  1493  1491  1487  1480  1475  1473  1471  1468  1467  1474  1487  1502  1518  1529  1543  1541  1542  1533  1528  1520  1519  1512  1501  1494  1493  1496  1504  1507  1517  1526  1539  1543  1543  1532  1532  1526  1517  1509  1505  1507  1510  1514  1520  1525  1528  1530  1531  1549  1557  1556  1551  1539  1534  1526  1515  1519  1523  1517  1519  1511
1500  1500  1499  1495  1494  1494  1493  1496  1499  1504  1510  1509  1509  1512  1504  1489  1490  1480  1483  1489  1494  1491  1487  1487  1495  1502  1515  1532  1538  1538  1534  1533  1525  1506  1501  1499  1499  1511  1528  1538  1548  1560  1566  1570  1573  1571  1567  1566  1555  1549  1541  1538  1530  1528  1525  1523  1522  1520  1519  1499  1497  1491  1477  1469  1462  1457  1458  1460  1463  1481  1488  1498  1509  1515  1517  1514  1504  1485  1467  1452  1446  1441  1441  1430  1428  1430  1437  1442  1453  1457  1463  1466  1471  1469  1468  1469  1472  1469  1473  1480  1483  1487  1483  1482  1479  1474  1466  1456  1453  1453  1456  1464  1472  1478  1479  1476  1470  1471  1469  1464  1466  1452  1446  1442  1445  1457  1474  1492  1500  1498  1492  1490  1487  1483  1477  1470  1465  1460  1461  1458  1454  1448  1445  1444  1441  1438  1443  1453  1469  1479  1485  1483  1481  1483  1485  1486  1482  1478  1475  1471  1465  1459  1463  1462  1469  1480  1486  1494  1505  1512  1515  1513  1517  1516  1512  1507  1497  1487  1479  1470  1461  1454  1456  1460  1467  1480  1488  1500  1507  1507  1498  1492  1483  1474  1472  1469  1468  1468  1473  1477  1487  1507  1518  1534  1538  1542  1539  1532  1520  1510  1509  1504  1497  1493  1492  1495  1500  1511  1524  1536  1538  1538  1532  1523  1520  1518  1512  1506  1502  1503  1502  1505  1508  1513  1518  1521  1529  1546  1555  1553  1546  1536  1530  1525  1523  1519  1524  1521  1512  1506
1480  1481  1484  1485  1489  1490  1491  1495  1492  1496  1507  1506  1513  1506  1499  1498  1491  1500  1499  1504  1503  1507  1504  1502  1509  1524  1531  1541  1537  1530  1533  1538  1527  1510  1505  1501  1506  1528  1533  1544  1555  1565  1568  1575  1574  1564  1561  1561  1554  1545  1543  1543  1535  1532  1526  1523  1522  1526  1515  1506  1491  1485  1482  1471  1463  1461  1467  1463  1468  1483  1493  1502  1513  1519  1519  1507  1492  1482  1471  1459  1451  1449  1438  1432  1430  1431  1436  1443  1444  1449  1458  1463  1463  1466  1470  1472  1472  1476  1484  1491  1491  1485  1492  1488  1482  1474  1470  1460  1456  1456  1457  1461  1468  1472  1474  1472  1468  1467  1467  1462  1463  1451  1446  1443  1443  1464  1480  1490  1496  1496  1494  1491  1490  1487  1485  1475  1469  1469  1464  1451  1455  1453  1447  1446  1443  1441  1443  1451  1463  1473  1482  1477  1476  1478  1487  1492  1490  1486  1483  1478  1469  1464  1462  1465  1468  1482  1491  1494  1502  1507  1520  1526  1523  1524  1527  1515  1503  1495  1485  1476  1467  1457  1455  1463  1472  1481  1488  1501  1511  1514  1504  1496  1484  1477  1474  1472  1470  1471  1479  1485  1497  1512  1525  1536  1535  1534  1531  1517  1513  1509  1505  1503  1497  1492  1491  1495  1500  1516  1528  1532  1531  1531  1525  1517  1514  1507  1502  1501  1500  1499  1497  1502  1506  1509  1512  1516  1532  1548  1554  1553  1550  1543  1536  1533  1530  1516  1516  1507  1504  1507
1461  1473  1478  1480  1485  1493  1494  1496  1496  1495  1503  1515  1514  1506  1502  1499  1495  1503  1516  1521  1519  1514  1523  1521  1523  1533  1537  1543  1540  1539  1526  1531  1518  1508  1502  1501  1502  1534  1541  1551  1562  1571  1570  1565  1552  1551  1549  1541  1538  1537  1540  1544  1539  1532  1527  1520  1521  1517  1520  1510  1492  1488  1486  1470  1464  1459  1461  1461  1468  1482  1490  1498  1505  1507  1501  1493  1478  1479  1467  1463  1455  1449  1442  1436  1434  1436  1440  1443  1443  1445  1453  1457  1461  1464  1467  1470  1479  1487  1492  1498  1502  1505  1504  1497  1478  1473  1464  1457  1460  1460  1462  1464  1464  1464  1466  1467  1466  1466  1466  1464  1458  1451  1443  1439  1439  1460  1475  1485  1489  1489  1490  1490  1489  1487  1484  1480  1476  1476  1466  1460  1453  1453  1447  1445  1443  1439  1440  1445  1456  1468  1474  1474  1475  1483  1493  1489  1489  1487  1486  1483  1475  1471  1460  1460  1471  1474  1491  1493  1498  1508  1520  1529  1525  1526  1529  1522  1517  1503  1491  1486  1478  1467  1462  1463  1468  1475  1488  1502  1510  1513  1504  1495  1485  1480  1478  1472  1472  1479  1487  1494  1504  1513  1520  1530  1534  1528  1518  1513  1511  1511  1505  1501  1497  1491  1488  1494  1505  1518  1528  1528  1523  1518  1511  1510  1503  1500  1500  1501  1500  1498  1501  1508  1519  1523  1519  1538  1547  1558  1560  1558  1556  1545  1538  1532  1527  1520  1511  1506  1502  1501
1454  1458  1468  1475  1481  1488  1495  1501  1497  1501  1513  1521  1519  1514  1509  1504  1501  1513  1526  1531  1531  1530  1529  1524  1531  1533  1540  1548  1542  1542  1536  1521  1504  1504  1498  1503  1504  1545  1552  1560  1568  1568  1559  1538  1530  1523  1524  1534  1530  1531  1528  1532  1530  1532  1524  1518  1516  1519  1514  1509  1505  1493  1480  1471  1466  1455  1449  1456  1470  1485  1487  1494  1501  1498  1490  1473  1472  1473  1468  1463  1456  1449  1444  1440  1442  1444  1446  1447  1444  1445  1450  1457  1459  1465  1469  1475  1488  1499  1506  1508  1511  1510  1507  1493  1481  1474  1465  1463  1462  1462  1464  1467  1466  1464  1464  1463  1465  1463  1465  1460  1454  1448  1437  1441  1440  1457  1464  1475  1481  1481  1482  1479  1478  1479  1479  1480  1479  1473  1469  1466  1457  1450  1449  1447  1444  1441  1436  1443  1451  1462  1470  1474  1475  1480  1484  1487  1486  1489  1490  1490  1485  1477  1468  1464  1466  1473  1481  1488  1497  1509  1521  1525  1526  1533  1532  1530  1521  1507  1495  1490  1479  1471  1465  1466  1470  1479  1493  1506  1514  1514  1504  1494  1486  1483  1480  1474  1467  1479  1494  1499  1505  1510  1514  1519  1522  1521  1514  1508  1506  1502  1500  1499  1496  1492  1491  1498  1509  1526  1531  1533  1524  1519  1514  1504  1501  1499  1502  1502  1499  1503  1510  1521  1526  1534  1543  1551  1561  1566  1564  1561  1552  1542  1534  1527  1521  1515  1509  1504  1503  1501
1441  1445  1458  1464  1472  1486  1495  1499  1502  1508  1518  1521  1522  1519  1515  1513  1511  1520  1531  1536  1540  1539  1532  1534  1534  1538  1543  1543  1540  1539  1533  1508  1499  1505  1500  1503  1519  1542  1561  1566  1573  1562  1543  1535  1516  1517  1527  1522  1525  1525  1529  1531  1530  1526  1521  1515  1516  1508  1510  1509  1501  1494  1479  1469  1458  1449  1452  1455  1462  1475  1485  1488  1490  1488  1478  1469  1462  1459  1460  1456  1451  1445  1443  1444  1443  1445  1448  1449  1448  1447  1447  1448  1454  1466  1473  1483  1496  1505  1510  1514  1517  1516  1505  1498  1488  1479  1473  1467  1470  1466  1465  1469  1470  1471  1469  1465  1462  1461  1460  1458  1455  1449  1446  1441  1442  1445  1457  1465  1471  1472  1473  1474  1473  1473  1473  1476  1480  1478  1471  1466  1457  1452  1448  1447  1446  1444  1443  1441  1444  1454  1469  1475  1473  1475  1480  1482  1484  1488  1490  1486  1486  1483  1477  1472  1471  1473  1476  1483  1494  1506  1515  1521  1524  1525  1531  1531  1525  1513  1507  1492  1484  1474  1469  1469  1471  1479  1498  1507  1512  1512  1503  1494  1487  1482  1477  1469  1466  1479  1489  1494  1496  1502  1507  1514  1523  1522  1515  1508  1503  1497  1494  1494  1492  1494  1497  1506  1518  1521  1530  1526  1524  1515  1513  1503  1499  1499  1502  1506  1505  1514  1524  1534  1540  1554  1555  1556  1563  1564  1557  1550  1543  1536  1527  1521  1518  1516  1512  1508  1505  1502
1439  1444  1452  1459  1466  1481  1491  1499  1498  1502  1509  1516  1521  1518  1521  1518  1517  1522  1532  1537  1541  1536  1531  1534  1537  1538  1540  1537  1534  1536  1526  1511  1504  1501  1498  1506  1520  1540  1562  1566  1567  1562  1543  1527  1518  1512  1508  1502  1508  1513  1515  1518  1521  1523  1518  1519  1515  1513  1508  1501  1493  1489  1477  1465  1453  1452  1450  1449  1461  1463  1467  1472  1475  1474  1467  1460  1457  1456  1453  1449  1445  1444  1444  1443  1437  1438  1446  1450  1450  1449  1445  1444  1450  1461  1475  1485  1495  1497  1505  1511  1516  1519  1506  1498  1496  1489  1484  1482  1478  1477  1473  1475  1477  1484  1479  1471  1466  1462  1462  1459  1456  1453  1449  1446  1444  1443  1451  1453  1459  1465  1465  1469  1468  1469  1472  1479  1480  1477  1472  1468  1460  1453  1449  1448  1446  1443  1442  1442  1444  1446  1458  1465  1470  1474  1474  1474  1477  1480  1489  1490  1493  1489  1483  1481  1475  1474  1476  1483  1495  1507  1513  1516  1519  1521  1521  1520  1521  1520  1510  1499  1491  1481  1473  1474  1480  1491  1505  1513  1508  1503  1497  1490  1486  1481  1475  1468  1462  1467  1478  1483  1483  1490  1498  1516  1525  1523  1514  1505  1498  1492  1489  1491  1494  1499  1505  1514  1516  1517  1518  1516  1512  1510  1504  1497  1495  1497  1504  1517  1518  1531  1537  1542  1549  1555  1565  1569  1561  1554  1544  1537  1535  1527  1520  1515  1514  1511  1513  1510  1510  1506
1443  1448  1454  1459  1462  1478  1485  1491  1498  1503  1512  1514  1518  1519  1514  1513  1517  1522  1530  1531  1534  1533  1531  1532  1532  1536  1540  1537  1531  1526  1515  1504  1500  1501  1503  1516  1527  1545  1562  1572  1567  1553  1543  1533  1519  1502  1485  1485  1487  1501  1511  1515  1520  1521  1516  1519  1517  1518  1509  1502  1492  1488  1481  1469  1456  1447  1449  1450  1455  1459  1464  1466  1465  1466  1466  1459  1455  1453  1449  1443  1444  1445  1445  1446  1442  1442  1449  1455  1455  1451  1443  1440  1448  1451  1466  1481  1490  1491  1504  1512  1519  1524  1516  1509  1503  1498  1494  1492  1491  1490  1484  1486  1486  1488  1482  1473  1468  1463  1462  1461  1457  1454  1449  1446  1442  1442  1443  1445  1451  1458  1462  1467  1464  1467  1468  1472  1479  1476  1471  1465  1462  1458  1451  1448  1445  1447  1444  1440  1440  1445  1449  1455  1459  1461  1468  1464  1474  1475  1486  1495  1493  1496  1494  1488  1484  1484  1489  1496  1505  1518  1515  1512  1512  1516  1519  1525  1529  1525  1515  1504  1495  1487  1482  1483  1490  1503  1509  1507  1499  1491  1486  1480  1475  1479  1470  1466  1464  1465  1472  1477  1483  1491  1502  1523  1530  1523  1512  1505  1499  1499  1496  1496  1497  1502  1509  1515  1517  1513  1508  1504  1499  1495  1494  1489  1491  1501  1517  1530  1537  1542  1545  1551  1560  1567  1567  1567  1566  1547  1536  1530  1527  1521  1519  1515  1514  1516  1516  1515  1511  1510
1448  1447  1449  1449  1452  1461  1475  1489  1494  1503  1507  1515  1523  1521  1514  1511  1518  1528  1530  1529  1530  1531  1534  1538  1540  1542  1542  1535  1531  1523  1511  1502  1499  1499  1507  1522  1531  1545  1561  1567  1561  1554  1546  1528  1513  1486  1478  1472  1474  1494  1504  1515  1516  1520  1521  1524  1524  1520  1513  1503  1498  1488  1482  1475  1463  1453  1446  1447  1450  1458  1466  1469  1469  1464  1462  1458  1454  1451  1451  1450  1448  1448  1451  1453  1450  1448  1454  1459  1461  1456  1448  1446  1445  1446  1463  1476  1485  1485  1502  1511  1522  1524  1518  1516  1513  1509  1501  1497  1497  1498  1492  1498  1495  1485  1480  1472  1468  1466  1464  1462  1458  1455  1450  1446  1442  1440  1442  1442  1446  1455  1460  1461  1459  1459  1462  1473  1473  1473  1471  1468  1468  1462  1456  1447  1448  1444  1441  1440  1441  1446  1449  1452  1454  1455  1457  1459  1467  1480  1486  1493  1494  1500  1500  1497  1497  1501  1509  1518  1525  1523  1516  1511  1512  1516  1519  1527  1531  1527  1520  1510  1503  1498  1494  1498  1505  1512  1512  1504  1493  1483  1475  1468  1466  1469  1465  1464  1465  1468  1472  1482  1490  1497  1511  1531  1525  1523  1515  1509  1504  1502  1502  1499  1501  1506  1512  1516  1516  1509  1501  1497  1491  1489  1489  1491  1501  1514  1531  1540  1548  1549  1550  1559  1563  1563  1566  1573  1564  1547  1539  1535  1530  1525  1522  1524  1525  1527  1525  1520  1508  1514
1437  1449  1451  1446  1445  1450  1462  1474  1493  1501  1515  1520  1525  1523  1519  1518  1525  1533  1534  1529  1531  1534  1543  1546  1547  1548  1546  1539  1532  1524  1505  1502  1496  1499  1507  1524  1540  1549  1554  1556  1561  1554  1539  1535  1515  1486  1473  1466  1467  1479  1494  1507  1512  1517  1522  1526  1526  1521  1510  1503  1497  1486  1479  1473  1467  1455  1447  1448  1449  1453  1461  1465  1465  1460  1457  1453  1450  1449  1447  1449  1451  1448  1450  1450  1452  1457  1460  1465  1470  1466  1452  1446  1441  1443  1454  1464  1488  1494  1502  1514  1523  1526  1523  1521  1517  1511  1507  1500  1501  1500  1496  1495  1493  1485  1476  1468  1467  1467  1465  1460  1457  1457  1453  1450  1445  1443  1442  1440  1445  1450  1452  1453  1453  1455  1460  1469  1469  1467  1466  1467  1469  1464  1456  1448  1442  1441  1441  1442  1443  1448  1452  1456  1458  1458  1459  1464  1473  1480  1484  1492  1496  1507  1511  1509  1509  1516  1525  1532  1534  1527  1518  1513  1506  1507  1505  1513  1523  1522  1524  1519  1515  1514  1512  1515  1522  1515  1508  1500  1489  1483  1470  1466  1465  1467  1474  1471  1473  1478  1485  1493  1502  1510  1518  1524  1524  1521  1515  1512  1505  1499  1496  1498  1505  1509  1512  1512  1512  1506  1496  1492  1487  1486  1488  1495  1501  1516  1537  1547  1553  1552  1553  1553  1554  1558  1559  1569  1566  1554  1544  1539  1530  1524  1523  1524  1520  1522  1529  1522  1513  1511
1418  1451  1457  1462  1455  1451  1455  1464  1484  1504  1510  1517  1519  1516  1516  1520  1525  1532  1534  1532  1534  1539  1548  1549  1548  1548  1541  1531  1530  1518  1509  1495  1495  1498  1508  1527  1541  1546  1547  1549  1550  1545  1541  1519  1508  1483  1473  1461  1459  1465  1476  1490  1506  1520  1523  1523  1524  1517  1503  1494  1489  1479  1475  1470  1463  1453  1449  1447  1447  1448  1451  1456  1456  1458  1455  1449  1445  1444  1446  1447  1447  1448  1451  1458  1463  1466  1469  1471  1475  1471  1457  1445  1444  1449  1446  1449  1488  1494  1503  1511  1515  1523  1527  1526  1521  1513  1509  1510  1512  1511  1504  1501  1494  1486  1476  1470  1468  1466  1465  1464  1462  1461  1457  1454  1448  1445  1441  1440  1444  1444  1443  1447  1449  1450  1453  1458  1460  1458  1461  1463  1465  1459  1450  1444  1441  1444  1446  1449  1455  1461  1464  1464  1465  1470  1468  1472  1476  1479  1486  1490  1506  1509  1513  1517  1518  1522  1532  1536  1533  1522  1518  1506  1500  1494  1498  1502  1513  1523  1526  1526  1526  1526  1526  1525  1521  1509  1501  1493  1486  1475  1466  1465  1469  1476  1482  1484  1488  1491  1496  1507  1513  1521  1522  1519  1519  1514  1512  1510  1502  1493  1490  1494  1502  1510  1508  1506  1504  1498  1492  1490  1488  1488  1490  1490  1501  1512  1539  1551  1558  1556  1553  1548  1547  1552  1553  1557  1562  1567  1558  1547  1540  1534  1532  1528  1532  1522  1526  1520  1505  1502
1412  1429  1452  1463  1457  1455  1459  1467  1485  1502  1511  1513  1508  1505  1510  1518  1525  1530  1533  1535  1535  1541  1556  1554  1553  1542  1536  1529  1524  1521  1510  1499  1498  1495  1513  1533  1544  1548  1551  1542  1531  1532  1513  1510  1506  1484  1467  1466  1463  1462  1467  1475  1496  1515  1518  1517  1514  1509  1496  1492  1484  1474  1468  1464  1461  1452  1448  1448  1448  1447  1449  1452  1454  1455  1453  1448  1439  1438  1439  1447  1444  1446  1454  1460  1468  1475  1482  1480  1487  1482  1467  1456  1453  1443  1451  1447  1453  1491  1492  1508  1514  1521  1527  1528  1526  1519  1517  1515  1515  1513  1507  1505  1498  1491  1485  1479  1475  1470  1468  1467  1465  1462  1460  1454  1449  1447  1443  1442  1445  1446  1445  1446  1447  1449  1452  1456  1460  1459  1458  1459  1459  1454  1447  1444  1440  1443  1452  1459  1466  1470  1471  1474  1475  1477  1484  1481  1486  1491  1495  1495  1507  1508  1513  1513  1518  1523  1527  1525  1520  1517  1509  1500  1497  1489  1495  1505  1512  1518  1522  1523  1523  1525  1525  1520  1510  1499  1491  1488  1485  1472  1466  1470  1477  1485  1490  1496  1498  1504  1509  1511  1511  1516  1518  1516  1511  1507  1509  1507  1499  1489  1486  1490  1495  1499  1497  1494  1491  1488  1485  1484  1484  1485  1489  1490  1501  1512  1540  1555  1561  1558  1546  1540  1546  1542  1552  1562  1560  1560  1552  1546  1544  1536  1533  1529  1529  1527  1524  1518  1502  1495
1407  1419  1448  1463  1462  1466  1468  1471  1489  1504  1513  1513  1507  1502  1509  1517  1519  1526  1530  1536  1541  1548  1558  1554  1551  1542  1531  1526  1522  1519  1513  1505  1498  1498  1516  1532  1538  1544  1541  1534  1524  1509  1504  1499  1493  1478  1469  1466  1464  1460  1462  1461  1476  1501  1522  1521  1509  1504  1494  1488  1476  1468  1461  1459  1456  1451  1449  1450  1450  1449  1446  1447  1449  1452  1452  1450  1442  1437  1439  1449  1446  1450  1459  1465  1470  1477  1488  1494  1506  1501  1487  1486  1463  1457  1448  1451  1453  1489  1492  1500  1511  1521  1525  1530  1530  1524  1527  1524  1522  1516  1515  1510  1506  1502  1493  1485  1479  1473  1469  1467  1466  1464  1460  1453  1448  1448  1446  1447  1449  1454  1453  1452  1454  1455  1459  1463  1464  1462  1458  1457  1454  1449  1447  1443  1440  1444  1454  1464  1472  1476  1477  1476  1476  1477  1480  1486  1483  1488  1495  1501  1504  1504  1503  1507  1511  1514  1516  1516  1514  1515  1502  1501  1488  1493  1495  1503  1507  1509  1513  1518  1517  1518  1518  1512  1506  1499  1495  1490  1485  1472  1467  1469  1476  1491  1500  1508  1512  1514  1513  1509  1508  1512  1513  1514  1512  1507  1505  1502  1495  1487  1481  1478  1482  1485  1484  1481  1482  1486  1487  1486  1487  1491  1497  1501  1512  1525  1548  1558  1559  1548  1545  1543  1543  1545  1555  1554  1560  1552  1544  1541  1539  1531  1534  1529  1529  1524  1518  1516  1506  1497
1418  1423  1439  1453  1462  1464  1470  1479  1495  1509  1509  1510  1506  1503  1507  1509  1509  1518  1524  1537  1544  1549  1558  1554  1547  1538  1531  1520  1515  1513  1514  1509  1501  1504  1519  1534  1532  1540  1535  1518  1507  1503  1498  1497  1490  1477  1470  1467  1466  1455  1455  1447  1451  1479  1507  1507  1503  1494  1483  1473  1464  1462  1456  1448  1450  1446  1450  1452  1451  1451  1448  1446  1446  1448  1450  1450  1445  1444  1446  1451  1447  1450  1455  1460  1465  1471  1487  1508  1513  1503  1499  1491  1482  1462  1457  1455  1467  1481  1491  1500  1507  1514  1518  1528  1532  1534  1537  1535  1530  1524  1522  1521  1518  1510  1503  1493  1482  1476  1470  1467  1465  1463  1458  1453  1452  1449  1447  1441  1450  1460  1465  1463  1464  1463  1467  1472  1472  1469  1461  1457  1450  1447  1447  1443  1442  1444  1451  1460  1470  1476  1476  1474  1471  1471  1477  1485  1485  1483  1494  1499  1505  1508  1505  1505  1507  1510  1513  1514  1511  1510  1511  1505  1495  1493  1496  1497  1503  1507  1507  1508  1513  1512  1509  1505  1505  1506  1502  1496  1488  1477  1468  1463  1473  1491  1503  1510  1507  1507  1510  1503  1504  1509  1512  1512  1509  1505  1502  1497  1491  1484  1480  1479  1477  1476  1472  1478  1483  1488  1489  1489  1496  1506  1510  1518  1521  1536  1552  1556  1553  1545  1542  1537  1551  1554  1560  1559  1552  1543  1535  1538  1536  1531  1524  1526  1528  1526  1521  1515  1510  1500
1427  1432  1436  1450  1457  1458  1466  1485  1495  1507  1509  1510  1506  1506  1506  1503  1504  1510  1522  1534  1550  1550  1554  1553  1541  1537  1536  1519  1508  1507  1509  1509  1506  1510  1520  1527  1538  1535  1533  1522  1510  1503  1499  1498  1498  1489  1477  1468  1465  1457  1453  1442  1446  1457  1480  1490  1484  1480  1472  1466  1461  1457  1453  1448  1445  1442  1448  1453  1454  1458  1456  1457  1454  1452  1454  1447  1446  1447  1449  1451  1456  1453  1454  1457  1460  1467  1490  1505  1515  1506  1503  1501  1493  1478  1467  1469  1473  1479  1494  1499  1502  1507  1513  1521  1530  1540  1545  1544  1537  1533  1534  1533  1524  1515  1505  1498  1486  1477  1471  1468  1465  1461  1458  1455  1452  1447  1445  1441  1446  1462  1472  1478  1479  1476  1474  1475  1477  1473  1467  1459  1452  1447  1448  1450  1448  1446  1449  1454  1460  1465  1467  1466  1464  1467  1470  1481  1484  1488  1496  1502  1507  1510  1508  1504  1504  1505  1508  1514  1514  1510  1505  1501  1496  1493  1492  1490  1495  1501  1504  1501  1509  1505  1498  1499  1499  1502  1501  1495  1487  1477  1470  1466  1468  1489  1501  1506  1505  1504  1503  1498  1497  1501  1506  1507  1505  1501  1494  1489  1489  1483  1477  1474  1475  1476  1479  1482  1485  1492  1497  1499  1509  1518  1524  1524  1533  1538  1547  1545  1542  1537  1534  1543  1550  1552  1553  1556  1546  1541  1535  1536  1531  1529  1525  1525  1528  1529  1524  1516  1503  1500
1440  1439  1441  1449  1456  1457  1463  1480  1498  1510  1512  1511  1505  1505  1506  1499  1502  1501  1510  1525  1541  1548  1552  1552  1545  1541  1531  1519  1508  1507  1510  1510  1511  1516  1521  1525  1532  1531  1530  1526  1520  1517  1512  1510  1504  1495  1481  1468  1464  1454  1448  1444  1440  1444  1471  1478  1469  1465  1462  1460  1460  1454  1450  1447  1445  1442  1444  1453  1458  1465  1471  1469  1469  1465  1460  1455  1445  1449  1447  1455  1455  1454  1455  1458  1458  1456  1471  1497  1509  1510  1511  1514  1507  1495  1489  1484  1483  1490  1493  1499  1504  1503  1511  1524  1534  1543  1549  1549  1545  1537  1537  1532  1527  1517  1510  1502  1489  1473  1468  1469  1465  1462  1459  1455  1452  1449  1445  1442  1449  1469  1479  1485  1486  1482  1479  1478  1478  1474  1468  1460  1453  1449  1452  1454  1452  1449  1450  1452  1453  1457  1458  1462  1468  1471  1472  1477  1480  1490  1498  1502  1503  1502  1502  1500  1502  1508  1515  1515  1513  1510  1503  1499  1493  1487  1483  1486  1492  1498  1504  1505  1510  1504  1492  1489  1488  1495  1494  1490  1483  1474  1470  1465  1467  1478  1495  1499  1502  1498  1494  1492  1494  1498  1502  1502  1499  1494  1491  1485  1485  1483  1479  1475  1477  1479  1485  1490  1492  1495  1504  1513  1522  1524  1526  1531  1535  1538  1541  1533  1531  1531  1532  1536  1546  1553  1552  1552  1547  1541  1534  1526  1522  1526  1525  1520  1526  1528  1524  1517  1504  1496
1446  1446  1446  1449  1458  1464  1474  1487  1500  1510  1516  1509  1504  1502  1500  1500  1497  1496  1499  1513  1526  1537  1542  1543  1548  1541  1530  1516  1510  1507  1511  1515  1517  1514  1515  1519  1524  1526  1532  1530  1530  1527  1521  1517  1510  1502  1481  1467  1462  1457  1447  1447  1445  1447  1451  1466  1464  1460  1455  1454  1454  1452  1451  1445  1442  1441  1445  1452  1462  1472  1484  1484  1480  1476  1468  1462  1451  1450  1452  1454  1453  1450  1451  1452  1453  1449  1450  1474  1502  1513  1519  1524  1515  1508  1508  1502  1499  1498  1492  1500  1508  1508  1511  1522  1530  1541  1548  1552  1548  1543  1538  1539  1528  1517  1509  1503  1492  1476  1469  1467  1463  1463  1458  1455  1452  1449  1439  1437  1448  1472  1485  1490  1489  1486  1482  1478  1476  1475  1468  1460  1454  1453  1458  1458  1456  1452  1452  1452  1451  1455  1457  1464  1476  1478  1478  1479  1481  1491  1488  1492  1493  1496  1498  1500  1503  1508  1512  1511  1509  1505  1498  1491  1485  1482  1479  1481  1485  1494  1505  1512  1510  1504  1490  1481  1475  1489  1487  1484  1477  1469  1469  1470  1473  1479  1483  1488  1490  1492  1490  1489  1493  1495  1503  1501  1497  1494  1490  1486  1484  1482  1478  1475  1478  1477  1485  1491  1490  1492  1502  1516  1524  1523  1523  1530  1532  1534  1534  1529  1526  1520  1520  1539  1547  1554  1553  1550  1540  1538  1532  1525  1522  1512  1513  1515  1521  1524  1523  1518  1511  1505
1462  1462  1455  1459  1465  1481  1494  1500  1502  1505  1506  1503  1504  1501  1495  1493  1490  1493  1497  1503  1510  1523  1538  1541  1531  1537  1527  1514  1508  1504  1513  1513  1514  1518  1518  1520  1525  1535  1535  1538  1536  1532  1526  1522  1516  1506  1489  1472  1459  1455  1455  1453  1448  1454  1455  1463  1464  1460  1455  1452  1450  1451  1455  1449  1446  1442  1448  1457  1469  1482  1493  1495  1493  1489  1486  1478  1466  1456  1462  1458  1453  1449  1448  1448  1448  1445  1453  1478  1502  1515  1521  1524  1521  1519  1515  1513  1516  1513  1513  1514  1513  1511  1515  1522  1527  1535  1540  1544  1547  1541  1540  1534  1525  1516  1511  1505  1494  1483  1474  1468  1463  1460  1457  1455  1452  1449  1442  1441  1452  1470  1488  1490  1487  1483  1478  1474  1475  1473  1469  1463  1458  1456  1460  1459  1456  1454  1452  1455  1452  1451  1457  1466  1481  1486  1489  1491  1492  1486  1489  1492  1490  1495  1499  1501  1506  1508  1508  1509  1506  1502  1495  1487  1483  1484  1484  1485  1485  1490  1500  1505  1503  1496  1486  1479  1471  1482  1483  1482  1475  1470  1467  1473  1471  1472  1475  1480  1483  1483  1486  1489  1498  1503  1506  1505  1503  1500  1494  1487  1485  1484  1482  1480  1480  1482  1488  1490  1490  1496  1494  1512  1521  1528  1526  1532  1528  1526  1523  1523  1525  1523  1526  1540  1548  1551  1549  1550  1542  1541  1531  1520  1510  1508  1509  1516  1522  1526  1526  1524  1519  1512
1475  1473  1472  1471  1477  1499  1510  1508  1504  1500  1497  1497  1500  1494  1491  1487  1484  1489  1495  1495  1499  1510  1523  1534  1538  1531  1528  1518  1507  1505  1508  1512  1510  1520  1526  1532  1534  1535  1539  1546  1545  1539  1530  1523  1513  1506  1498  1478  1465  1457  1455  1454  1448  1453  1457  1461  1460  1459  1453  1453  1453  1456  1460  1460  1448  1447  1461  1472  1482  1492  1501  1504  1503  1500  1497  1488  1481  1474  1472  1462  1462  1459  1454  1453  1451  1448  1472  1478  1494  1508  1514  1516  1520  1520  1518  1523  1528  1528  1528  1526  1521  1521  1518  1516  1520  1526  1531  1534  1537  1534  1528  1526  1520  1516  1513  1502  1493  1485  1478  1470  1465  1462  1459  1452  1451  1448  1443  1444  1452  1469  1481  1485  1482  1479  1478  1472  1469  1466  1458  1460  1463  1461  1462  1460  1460  1456  1455  1455  1456  1454  1455  1462  1476  1487  1493  1496  1496  1494  1494  1492  1492  1495  1500  1505  1506  1506  1507  1508  1509  1508  1501  1497  1494  1492  1490  1489  1484  1484  1484  1485  1488  1486  1480  1474  1473  1476  1478  1477  1477  1474  1470  1471  1468  1469  1474  1476  1478  1480  1486  1493  1500  1505  1506  1503  1501  1500  1494  1492  1488  1486  1484  1479  1478  1481  1484  1487  1490  1497  1496  1516  1525  1533  1533  1532  1526  1515  1514  1519  1523  1533  1535  1550  1557  1559  1554  1549  1547  1542  1530  1523  1506  1510  1511  1511  1517  1521  1527  1525  1530  1518
1482  1484  1480  1486  1493  1510  1517  1516  1510  1498  1492  1490  1491  1490  1490  1483  1487  1485  1493  1493  1495  1503  1511  1513  1519  1524  1518  1501  1505  1504  1501  1503  1507  1519  1530  1533  1536  1541  1547  1553  1554  1546  1532  1523  1517  1510  1500  1491  1481  1469  1461  1453  1458  1453  1455  1460  1461  1461  1459  1460  1463  1466  1474  1469  1462  1459  1472  1482  1493  1498  1510  1519  1517  1508  1500  1496  1497  1489  1482  1477  1474  1472  1469  1462  1460  1463  1467  1476  1489  1498  1509  1513  1517  1521  1526  1533  1545  1541  1538  1528  1528  1526  1517  1509  1509  1514  1517  1525  1523  1518  1520  1520  1513  1514  1514  1505  1496  1490  1481  1471  1465  1463  1462  1457  1452  1445  1442  1444  1450  1464  1476  1478  1478  1477  1471  1466  1461  1461  1456  1458  1461  1469  1473  1478  1471  1463  1458  1457  1455  1454  1455  1458  1468  1481  1488  1491  1495  1497  1499  1499  1495  1494  1498  1499  1508  1510  1511  1514  1517  1515  1510  1506  1504  1501  1498  1491  1484  1481  1477  1475  1477  1477  1477  1476  1473  1471  1472  1473  1474  1473  1468  1466  1469  1470  1473  1474  1475  1477  1484  1495  1501  1504  1504  1503  1502  1499  1492  1488  1487  1485  1481  1476  1476  1481  1485  1488  1494  1502  1514  1528  1531  1530  1525  1521  1516  1513  1510  1512  1517  1530  1541  1551  1560  1558  1550  1546  1547  1545  1537  1527  1518  1508  1511  1505  1512  1519  1525  1526  1524  1522
1493  1492  1495  1495  1502  1511  1518  1520  1519  1511  1502  1495  1496  1495  1492  1491  1487  1488  1487  1485  1482  1488  1493  1502  1510  1511  1508  1502  1498  1498  1498  1500  1508  1520  1531  1530  1534  1542  1548  1555  1555  1549  1537  1526  1516  1510  1504  1504  1496  1489  1470  1463  1455  1455  1460  1468  1472  1471  1472  1472  1472  1474  1472  1473  1468  1469  1481  1490  1502  1513  1524  1528  1526  1515  1506  1501  1498  1496  1492  1486  1477  1477  1475  1470  1470  1466  1465  1472  1489  1494  1504  1509  1521  1525  1528  1542  1547  1552  1548  1537  1534  1530  1519  1510  1502  1503  1507  1516  1524  1523  1511  1504  1505  1506  1509  1503  1497  1494  1487  1475  1468  1465  1463  1458  1452  1446  1445  1447  1452  1461  1469  1473  1475  1475  1469  1463  1459  1457  1458  1456  1464  1480  1483  1482  1479  1473  1467  1458  1456  1454  1452  1455  1463  1474  1479  1484  1492  1502  1502  1502  1498  1493  1492  1497  1505  1509  1511  1516  1521  1520  1519  1515  1510  1507  1502  1496  1489  1483  1477  1475  1474  1473  1475  1475  1474  1469  1469  1469  1469  1468  1466  1466  1468  1470  1473  1471  1471  1474  1484  1494  1501  1505  1507  1504  1502  1497  1491  1485  1483  1480  1478  1477  1481  1487  1497  1503  1507  1514  1527  1535  1531  1528  1522  1517  1513  1512  1509  1507  1507  1515  1545  1550  1555  1557  1552  1548  1549  1549  1542  1533  1523  1520  1513  1509  1509  1519  1524  1528  1524  1522
1494  1500  1502  1499  1505  1513  1520  1520  1523  1526  1513  1509  1501  1496  1494  1492  1494  1490  1486  1485  1480  1487  1490  1489  1499  1501  1499  1491  1492  1493  1494  1496  1494  1508  1519  1525  1527  1532  1545  1550  1553  1546  1539  1532  1523  1513  1505  1509  1499  1500  1492  1478  1470  1468  1473  1480  1478  1478  1478  1476  1477  1475  1468  1476  1481  1483  1486  1497  1515  1525  1537  1537  1531  1517  1507  1503  1502  1497  1491  1483  1481  1477  1478  1476  1473  1473  1473  1482  1490  1495  1501  1508  1513  1522  1529  1536  1548  1547  1549  1542  1535  1526  1514  1507  1495  1494  1501  1503  1516  1513  1505  1490  1491  1492  1495  1497  1497  1490  1486  1479  1469  1472  1467  1463  1457  1449  1445  1445  1449  1458  1465  1469  1472  1469  1469  1461  1457  1455  1457  1460  1472  1488  1492  1487  1481  1476  1470  1457  1453  1454  1451  1453  1457  1467  1471  1481  1492  1503  1503  1503  1501  1495  1489  1492  1498  1502  1508  1518  1521  1522  1521  1514  1508  1505  1500  1492  1488  1484  1479  1475  1473  1473  1476  1478  1478  1473  1468  1469  1471  1472  1470  1472  1473  1472  1470  1470  1468  1477  1485  1495  1503  1507  1504  1500  1497  1493  1490  1486  1481  1476  1475  1481  1493  1503  1510  1517  1524  1530  1535  1535  1536  1526  1524  1515  1508  1505  1503  1500  1501  1514  1540  1552  1552  1557  1560  1557  1554  1551  1549  1544  1539  1526  1518  1505  1497  1502  1525  1521  1524  1524
1497  1502  1504  1508  1514  1522  1528  1529  1528  1524  1518  1511  1500  1496  1479  1479  1490  1489  1488  1485  1473  1467  1480  1481  1491  1497  1495  1489  1489  1490  1497  1492  1490  1494  1500  1506  1512  1518  1534  1536  1536  1534  1534  1526  1524  1524  1519  1513  1522  1515  1506  1498  1482  1480  1486  1491  1483  1481  1480  1479  1480  1480  1482  1497  1496  1497  1496  1517  1526  1538  1545  1542  1535  1522  1504  1499  1501  1500  1497  1492  1479  1474  1474  1478  1481  1486  1486  1489  1494  1494  1499  1499  1511  1516  1526  1535  1543  1544  1541  1547  1538  1527  1517  1510  1495  1488  1483  1499  1501  1487  1478  1475  1480  1480  1492  1497  1487  1486  1486  1482  1478  1470  1468  1465  1457  1452  1448  1446  1448  1453  1461  1469  1471  1480  1476  1468  1459  1453  1457  1463  1476  1493  1496  1492  1488  1482  1473  1463  1454  1454  1453  1453  1454  1465  1473  1481  1496  1501  1502  1501  1498  1493  1487  1489  1493  1498  1506  1516  1523  1519  1516  1515  1507  1501  1497  1493  1490  1485  1482  1480  1475  1478  1484  1488  1487  1481  1475  1475  1477  1478  1479  1479  1478  1474  1470  1469  1471  1474  1484  1492  1497  1503  1499  1497  1494  1491  1487  1484  1480  1478  1479  1487  1498  1511  1520  1526  1531  1532  1533  1530  1526  1521  1519  1507  1499  1496  1495  1499  1503  1518  1536  1545  1547  1556  1555  1560  1557  1555  1550  1548  1544  1533  1520  1501  1491  1494  1498  1508  1512  1522
1497  1504  1506  1515  1522  1529  1534  1536  1531  1520  1514  1496  1492  1483  1474  1481  1484  1492  1483  1480  1469  1466  1465  1470  1481  1490  1491  1487  1486  1483  1487  1486  1486  1490  1493  1495  1504  1511  1511  1516  1507  1513  1517  1517  1517  1513  1516  1518  1517  1519  1517  1507  1492  1489  1494  1494  1492  1488  1489  1487  1492  1496  1497  1504  1510  1510  1514  1526  1541  1549  1550  1545  1540  1528  1509  1509  1493  1497  1494  1492  1476  1467  1473  1480  1491  1494  1496  1498  1501  1505  1501  1495  1502  1515  1535  1539  1543  1541  1538  1538  1540  1530  1516  1496  1486  1481  1486  1483  1489  1479  1469  1469  1464  1471  1471  1484  1487  1490  1487  1484  1481  1476  1472  1464  1459  1454  1452  1450  1448  1450  1458  1470  1476  1476  1476  1472  1462  1458  1457  1463  1474  1491  1494  1490  1487  1491  1480  1469  1459  1456  1454  1453  1455  1464  1475  1487  1495  1497  1496  1494  1493  1488  1485  1487  1493  1502  1509  1516  1518  1516  1516  1515  1508  1502  1497  1493  1489  1486  1482  1480  1479  1484  1491  1497  1496  1488  1483  1483  1483  1487  1486  1486  1484  1477  1474  1473  1474  1476  1483  1487  1492  1501  1491  1492  1490  1487  1484  1481  1478  1479  1486  1490  1505  1514  1522  1531  1535  1531  1526  1524  1519  1514  1511  1503  1500  1502  1494  1499  1505  1524  1540  1544  1545  1536  1542  1546  1553  1553  1547  1543  1539  1536  1523  1514  1494  1487  1496  1496  1509  1519
1494  1509  1516  1516  1527  1528  1533  1538  1533  1526  1510  1495  1486  1480  1482  1481  1488  1488  1483  1480  1472  1460  1460  1462  1469  1479  1484  1485  1487  1486  1487  1488  1488  1488  1492  1485  1489  1487  1489  1495  1495  1498  1501  1503  1499  1500  1508  1514  1515  1518  1517  1505  1503  1499  1499  1506  1505  1505  1508  1504  1506  1512  1517  1522  1525  1523  1527  1540  1551  1555  1554  1550  1540  1520  1505  1507  1495  1492  1494  1485  1474  1467  1474  1484  1493  1496  1501  1506  1512  1506  1508  1502  1507  1519  1528  1531  1534  1530  1529  1535  1535  1526  1508  1493  1484  1486  1486  1489  1486  1481  1468  1462  1457  1463  1474  1477  1481  1485  1484  1479  1475  1470  1467  1464  1459  1454  1451  1449  1449  1452  1457  1469  1476  1478  1476  1468  1459  1459  1453  1462  1476  1486  1490  1491  1494  1495  1486  1475  1466  1460  1454  1452  1455  1467  1475  1485  1492  1490  1493  1493  1491  1486  1483  1486  1493  1501  1507  1510  1511  1508  1511  1511  1510  1503  1502  1495  1489  1486  1484  1482  1484  1491  1500  1503  1499  1494  1491  1492  1493  1493  1494  1492  1487  1478  1476  1474  1472  1473  1477  1484  1494  1497  1497  1491  1489  1486  1482  1479  1476  1475  1482  1497  1511  1521  1527  1536  1539  1531  1523  1516  1512  1509  1505  1504  1501  1506  1505  1507  1521  1535  1547  1541  1535  1533  1533  1539  1546  1544  1544  1546  1537  1522  1525  1517  1514  1491  1490  1493  1499  1524
1490  1506  1515  1523  1533  1532  1531  1540  1541  1534  1512  1494  1483  1476  1474  1486  1489  1495  1490  1486  1472  1463  1462  1460  1465  1471  1486  1486  1494  1487  1489  1489  1489  1490  1489  1483  1480  1482  1485  1487  1489  1489  1492  1497  1493  1490  1494  1502  1510  1514  1514  1507  1503  1509  1515  1513  1514  1519  1522  1519  1520  1531  1533  1542  1539  1536  1542  1552  1558  1554  1549  1543  1531  1517  1506  1499  1499  1493  1497  1485  1476  1469  1476  1477  1487  1496  1501  1512  1522  1517  1519  1514  1515  1517  1523  1528  1525  1524  1527  1526  1529  1519  1505  1493  1487  1484  1477  1475  1486  1480  1470  1466  1457  1461  1462  1470  1479  1479  1479  1474  1471  1467  1465  1463  1460  1454  1450  1449  1451  1452  1453  1470  1478  1482  1477  1467  1462  1460  1461  1465  1478  1483  1486  1491  1496  1494  1488  1480  1473  1462  1454  1452  1455  1461  1470  1477  1487  1494  1497  1497  1493  1489  1485  1483  1485  1489  1497  1502  1503  1501  1501  1504  1506  1504  1502  1498  1491  1486  1484  1482  1486  1498  1502  1506  1500  1496  1496  1497  1497  1497  1497  1495  1487  1479  1473  1472  1471  1470  1473  1479  1485  1491  1498  1493  1488  1482  1477  1474  1473  1475  1477  1492  1509  1520  1529  1537  1541  1533  1522  1508  1504  1506  1505  1506  1502  1506  1508  1511  1529  1544  1544  1547  1539  1532  1527  1527  1533  1535  1539  1537  1521  1518  1522  1520  1517  1516  1497  1497  1501  1517
1481  1497  1514  1528  1535  1534  1533  1542  1542  1538  1524  1499  1490  1478  1478  1484  1489  1494  1499  1491  1485  1479  1467  1465  1470  1478  1488  1503  1506  1501  1501  1501  1501  1501  1498  1492  1485  1479  1477  1481  1485  1488  1490  1492  1493  1489  1491  1503  1509  1506  1509  1504  1509  1517  1518  1525  1522  1526  1529  1528  1535  1547  1554  1556  1555  1550  1551  1552  1560  1553  1545  1541  1525  1520  1505  1496  1492  1491  1484  1480  1476  1470  1460  1466  1474  1486  1497  1519  1521  1525  1524  1519  1522  1524  1530  1533  1530  1530  1532  1531  1527  1516  1510  1500  1489  1477  1470  1471  1478  1478  1475  1470  1466  1459  1460  1470  1475  1475  1473  1473  1471  1467  1465  1462  1459  1456  1451  1452  1453  1452  1467  1475  1481  1479  1475  1468  1465  1459  1457  1465  1472  1474  1482  1485  1491  1492  1486  1480  1475  1465  1455  1453  1457  1460  1466  1470  1483  1497  1506  1503  1502  1491  1484  1482  1481  1483  1487  1492  1498  1495  1495  1503  1505  1507  1505  1499  1493  1487  1484  1485  1495  1508  1514  1513  1508  1506  1505  1504  1504  1504  1502  1498  1488  1478  1473  1472  1472  1471  1469  1473  1478  1486  1493  1494  1488  1480  1472  1471  1473  1476  1479  1494  1509  1516  1527  1535  1541  1530  1516  1506  1506  1506  1506  1506  1506  1508  1509  1515  1530  1543  1545  1543  1540  1525  1521  1524  1527  1532  1537  1535  1526  1523  1521  1527  1523  1512  1493  1494  1498  1521
1470  1479  1501  1518  1528  1529  1524  1535  1531  1528  1524  1502  1495  1487  1480  1486  1490  1499  1500  1493  1495  1485  1479  1479  1485  1502  1510  1511  1524  1517  1515  1513  1509  1515  1518  1510  1501  1491  1481  1477  1479  1481  1484  1486  1486  1488  1493  1493  1496  1495  1493  1493  1499  1515  1519  1529  1524  1528  1526  1538  1543  1560  1564  1566  1560  1555  1550  1553  1549  1539  1536  1528  1524  1521  1505  1498  1495  1491  1488  1481  1474  1473  1465  1454  1463  1479  1490  1515  1528  1531  1532  1529  1532  1535  1536  1538  1534  1533  1532  1534  1531  1525  1522  1509  1491  1477  1472  1468  1470  1476  1480  1480  1475  1461  1457  1459  1466  1470  1471  1474  1469  1468  1466  1459  1457  1454  1451  1453  1458  1469  1474  1481  1481  1478  1473  1467  1461  1455  1457  1466  1468  1471  1476  1484  1490  1488  1481  1475  1466  1461  1456  1453  1454  1455  1461  1467  1485  1506  1512  1510  1512  1504  1489  1482  1477  1477  1482  1486  1493  1495  1496  1508  1515  1519  1514  1506  1498  1490  1486  1491  1505  1518  1521  1521  1519  1516  1513  1513  1511  1507  1504  1499  1489  1479  1474  1473  1472  1471  1469  1471  1473  1478  1486  1485  1485  1473  1467  1469  1474  1480  1487  1498  1513  1516  1523  1530  1536  1530  1521  1507  1507  1502  1500  1498  1502  1506  1506  1513  1529  1545  1544  1545  1536  1531  1521  1521  1517  1525  1529  1526  1525  1519  1521  1519  1518  1506  1499  1498  1499  1522
