ncols 250
nrows 63
xllcorner 108.036804
yllcorner 62.889709
cellsize 25
NODATA_value -9999
448   447   444   443   440   436   432   426   433   433   441   442   438   440   444   441   432   430   438   440   441   440   436   426   427   423   427   435   434   435   435   432   438   441   441   440   437   431   426   421   422   433   438   440   440   439   443   445   440   439   438   435   434   430   432   435   436   436   437   438   438   440   439   441   443   443   443   449   449   449   445   441   444   447   448   451   455   454   458   460   461   457   455   452   453   452   453   448   445   447   447   454   462   466   467   465   463   463   462   463   462   464   470   482   477   478   476   471   470   473   477   479   475   475   475   478   482   485   485   484   489   492   493   493   486   478   477   478   482   485   492   491   488   489   504   509   508   507   506   504   500   497   496   502   504   509   505   501   498   501   502   500   502   509   513   514   511   507   510   509   510   516   519   516   517   517   516   516   517   514   512   516   519   518   514   514   517   511   500   499   499   500   493   490   490   492   501   502   504   502   498   496   499   507   510   507   513   513   515   518   519   520   522   522   519   519   520   520   521   523   523   519   516   519   523   526   522   520   521   518   514   514   517   519   516   512   509   506   506   509   512   519   521   516   511   514   521   524   525   524   525   528   530   528   534   535   529   526   530   532
442   439   439   440   440   439   441   433   430   434   440   441   435   440   441   439   435   436   441   441   442   442   438   429   427   429   428   431   433   435   435   443   444   440   438   436   438   436   431   424   427   431   438   439   439   439   444   447   442   440   436   436   437   430   430   433   437   440   442   440   439   442   440   440   442   444   447   452   451   447   442   438   441   448   447   450   455   457   459   459   462   458   458   454   452   449   451   452   451   444   444   451   456   461   465   465   466   467   464   465   465   464   467   476   477   475   475   478   485   482   478   477   471   471   473   473   477   488   490   485   491   497   493   499   489   476   471   473   484   488   492   492   492   495   503   510   515   513   511   505   503   499   494   502   503   506   504   503   501   500   500   501   502   504   506   505   504   504   505   507   509   511   511   510   512   512   510   509   508   507   508   511   515   515   512   518   517   510   503   501   503   498   491   482   480   487   493   499   498   497   489   495   493   497   495   502   499   507   510   509   513   516   517   518   517   514   516   518   517   515   511   510   514   517   519   522   519   519   517   515   512   512   516   519   516   513   513   509   502   501   509   508   509   506   504   506   511   515   510   511   517   518   524   520   527   535   535   532   533   533
441   439   437   439   438   438   438   437   437   438   441   442   440   436   437   436   436   439   443   443   444   444   437   431   433   433   432   431   434   438   439   442   441   432   428   426   433   437   442   435   427   429   438   442   443   445   445   447   445   439   433   434   436   434   434   435   437   442   446   448   446   438   435   438   442   444   442   445   446   445   443   442   442   445   448   450   454   457   457   462   465   462   458   456   450   448   444   446   447   445   447   452   455   459   464   466   469   466   461   461   462   467   472   476   477   477   476   487   490   482   478   472   473   475   476   473   475   483   485   485   491   489   493   491   486   476   474   477   482   486   488   490   489   492   499   508   514   514   511   504   500   494   493   499   502   508   508   505   503   500   499   502   503   505   505   505   503   499   502   507   510   511   509   508   505   507   509   510   509   507   508   509   511   509   509   506   508   510   507   503   497   490   487   479   480   484   491   497   501   497   492   496   492   490   490   500   500   501   507   505   509   512   514   515   518   516   516   521   518   509   510   509   512   516   518   522   517   515   514   512   508   508   515   520   515   517   517   512   507   499   502   507   509   513   509   516   514   513   507   514   523   528   526   528   526   528   530   530   528   528
445   439   433   436   438   437   442   442   440   441   440   441   437   431   431   436   440   440   441   443   445   444   439   437   438   437   439   436   438   440   436   436   431   428   429   427   433   436   440   439   435   438   442   444   445   444   440   442   444   442   439   442   435   437   441   443   448   450   453   454   452   442   441   442   445   444   442   443   447   446   443   443   444   443   444   449   453   453   455   460   457   458   458   454   451   448   442   444   450   448   450   453   453   454   461   463   462   458   454   454   457   459   463   471   476   475   477   488   489   484   480   474   472   478   481   478   473   479   482   489   490   483   483   486   483   480   481   484   484   484   485   487   486   501   498   506   510   512   509   502   493   491   493   500   504   506   506   505   503   500   501   504   509   511   504   501   503   499   501   506   509   511   511   515   513   511   508   512   515   510   501   502   503   503   507   504   507   507   503   499   493   487   484   480   479   485   492   499   505   500   494   495   496   495   495   495   499   505   509   510   511   512   511   511   516   514   515   519   520   511   505   510   510   511   515   521   522   522   519   510   506   506   519   522   521   518   514   516   508   508   501   508   515   518   520   517   516   512   518   515   527   529   535   533   531   529   527   525   525   528
442   443   436   434   432   435   439   438   438   440   439   440   436   430   432   433   442   442   440   443   441   442   448   445   443   441   444   442   442   439   435   431   430   431   431   434   438   438   441   438   441   443   441   441   446   449   447   450   454   447   446   446   445   447   444   444   447   453   458   456   453   446   446   448   447   442   443   441   447   445   443   443   445   445   446   447   451   452   456   458   459   458   458   458   458   453   449   451   455   457   458   459   459   457   457   458   458   455   452   451   453   457   461   465   470   472   480   481   483   483   480   476   475   481   485   482   479   479   483   487   492   489   489   490   489   483   487   487   484   482   483   483   491   504   505   509   504   510   508   504   497   496   497   500   500   502   501   499   502   501   500   504   511   511   509   506   504   501   498   499   501   504   508   513   515   513   511   513   514   508   500   499   498   499   501   502   506   506   499   495   488   480   482   478   480   482   491   503   507   504   503   503   506   506   503   500   501   505   512   514   512   512   513   512   514   515   515   516   516   510   507   507   506   507   515   520   526   522   518   512   506   505   516   523   525   518   512   518   514   510   505   511   513   513   519   523   517   518   521   525   529   546   539   545   540   537   533   530   532   535
445   441   435   428   424   424   422   422   426   435   439   441   439   435   432   437   440   441   438   438   438   444   449   451   449   443   440   445   442   442   436   433   435   433   433   435   441   442   440   441   442   449   443   443   447   450   453   453   454   452   450   449   450   448   446   439   440   448   454   448   445   448   452   452   449   444   439   438   442   443   445   446   447   445   450   457   457   453   458   458   459   460   463   462   464   460   459   458   459   462   462   461   462   462   464   464   465   463   459   456   455   457   459   460   461   463   468   469   472   476   471   472   479   486   488   486   482   483   484   484   491   492   491   489   489   490   495   492   489   486   482   478   494   498   504   504   504   515   512   504   500   498   505   502   498   499   499   500   503   508   504   507   510   510   504   504   500   498   495   494   497   502   506   509   510   512   514   515   513   509   503   496   497   498   500   501   499   501   500   497   491   481   480   481   480   479   484   497   499   500   505   503   505   506   505   504   507   508   512   509   504   503   504   506   502   509   512   513   515   513   508   504   504   508   513   516   519   515   515   513   511   509   514   519   524   522   519   519   519   511   506   507   512   510   515   518   512   517   517   528   548   551   549   549   544   545   540   536   537   535
442   438   426   423   421   418   409   416   421   433   438   439   438   431   426   424   431   438   441   443   445   451   455   449   446   442   441   448   440   442   439   440   444   438   437   440   447   448   447   445   444   444   445   449   452   456   455   457   457   459   454   452   451   451   445   441   440   445   452   450   447   448   453   452   445   443   444   445   445   447   450   453   455   457   460   460   456   457   462   465   462   467   461   461   464   466   463   462   461   463   461   464   465   464   464   469   469   471   469   463   463   463   463   461   463   462   460   460   460   459   458   467   472   484   486   483   481   481   483   486   493   496   494   490   487   493   495   494   491   487   485   483   492   507   510   513   518   516   510   505   500   501   505   505   500   496   498   501   507   514   511   507   510   509   504   500   496   495   490   493   506   501   503   507   509   509   510   513   515   512   507   503   501   498   499   496   496   499   504   504   497   487   484   482   479   482   481   491   500   501   503   501   500   499   498   503   508   503   500   501   500   505   509   506   505   505   508   510   518   518   511   510   508   514   515   514   513   516   516   516   516   515   516   520   519   524   526   523   520   516   511   508   512   506   517   518   521   523   523   529   547   553   555   556   553   542   547   540   541   543
438   435   425   422   417   416   410   411   418   440   441   439   438   431   424   423   425   434   444   449   451   450   448   446   443   446   443   441   448   443   444   443   444   440   443   445   448   450   450   449   452   450   449   452   453   458   456   456   465   464   457   456   451   450   448   444   441   443   445   444   443   443   450   453   446   443   446   448   450   451   451   453   459   465   464   461   456   459   463   466   460   456   454   455   459   464   464   463   467   470   469   467   466   466   466   472   475   480   480   473   468   468   465   465   464   466   460   460   455   455   454   459   469   482   481   476   478   476   477   481   488   492   487   484   485   492   493   491   489   489   485   489   498   507   511   510   511   512   508   505   500   501   502   502   501   497   500   502   508   510   512   509   509   506   503   504   503   494   491   505   509   506   512   513   513   507   507   513   510   507   508   512   510   505   501   497   498   502   505   503   497   487   480   474   476   480   483   493   500   499   497   496   491   487   494   502   502   501   496   492   495   502   505   506   503   507   514   516   521   521   514   508   511   512   516   517   518   523   526   522   521   517   513   509   512   517   523   523   520   515   512   515   519   516   511   520   524   524   523   532   541   546   549   560   562   551   545   538   537   538
432   436   429   420   419   416   416   411   429   437   439   437   435   433   428   428   428   433   441   447   447   441   440   442   443   449   447   446   443   447   445   443   442   444   446   448   449   450   448   451   455   455   454   452   452   455   457   460   466   467   457   455   451   449   451   443   442   443   446   444   440   440   448   452   449   445   447   446   448   448   450   451   455   460   461   460   457   459   468   471   467   455   452   452   454   458   460   461   466   471   472   469   467   468   473   479   483   483   481   478   470   467   468   468   468   469   468   464   458   456   456   462   466   475   478   475   476   478   479   479   484   488   494   491   488   488   488   485   487   488   490   490   499   506   505   504   504   506   507   507   500   499   499   498   498   498   500   503   505   509   509   509   508   504   504   505   507   504   500   504   508   509   509   507   508   505   504   504   503   506   511   514   505   504   500   498   502   500   502   501   496   484   471   466   468   475   484   495   502   500   498   492   481   478   488   497   499   495   494   492   497   503   505   506   508   514   520   523   518   516   509   506   513   508   513   516   521   523   529   525   522   519   512   503   506   510   515   517   522   520   520   524   523   521   515   524   526   529   531   547   538   542   545   553   560   557   543   534   534   542
429   425   423   422   421   417   422   429   434   435   434   431   429   430   427   424   423   427   435   440   445   443   443   445   451   456   453   448   448   449   443   446   447   448   445   447   447   449   450   450   450   453   450   446   445   452   459   464   465   464   460   455   452   453   451   452   440   441   444   444   442   442   449   449   449   449   448   448   450   449   448   448   449   455   457   458   461   463   471   473   469   464   461   458   462   459   457   463   467   472   472   470   470   472   475   482   487   484   477   474   470   469   467   467   467   471   476   473   467   461   460   463   466   470   475   477   477   481   483   484   484   482   488   489   490   487   483   480   485   491   495   495   501   501   502   501   497   499   503   505   502   498   495   493   495   497   500   503   500   501   505   507   505   504   506   506   503   501   501   504   506   504   502   501   497   498   496   492   494   493   498   502   500   499   500   495   494   496   500   501   496   478   471   469   463   472   486   493   497   495   494   489   479   475   481   487   489   491   492   494   499   501   497   498   501   508   514   516   513   515   505   506   508   507   512   517   520   523   520   519   513   513   514   502   496   511   517   518   528   531   531   526   533   527   528   533   534   537   541   545   550   549   548   549   556   557   551   540   539   545
431   427   425   423   420   424   429   440   442   440   434   430   430   432   429   425   422   423   432   433   439   444   444   446   450   452   450   454   452   453   446   449   452   450   442   447   448   448   452   452   450   446   448   444   444   452   460   465   463   459   454   456   457   455   454   446   440   439   440   444   447   449   450   450   450   451   448   447   444   443   446   451   453   458   457   461   460   462   467   471   471   466   464   466   467   464   462   465   466   469   470   470   472   470   474   477   473   470   467   471   470   471   471   470   466   470   475   476   474   468   463   464   464   462   470   473   472   476   483   481   480   481   484   486   486   487   485   483   487   490   495   496   496   496   497   495   497   498   504   505   504   497   489   489   485   491   496   501   500   498   502   502   501   498   501   500   497   493   490   493   496   494   490   492   494   498   495   490   490   492   499   502   501   501   501   493   487   489   496   498   493   479   474   474   470   474   487   492   496   495   498   492   486   481   482   488   490   495   495   496   494   495   492   492   496   505   517   516   510   504   509   503   503   507   509   510   516   521   518   509   513   509   511   501   503   515   519   525   532   538   542   544   546   548   550   553   549   541   541   547   550   552   554   555   555   551   550   544   541   543
425   424   424   422   425   431   435   440   443   441   435   431   432   436   436   433   430   429   430   430   431   430   434   441   444   448   452   459   456   454   445   450   457   458   451   448   451   455   455   455   455   448   449   447   453   454   456   460   455   454   451   456   460   463   458   452   448   445   442   448   454   454   454   454   451   450   448   449   447   448   452   456   456   457   457   457   457   459   464   465   464   458   459   461   465   463   463   459   461   461   465   468   469   468   465   468   471   467   468   474   472   473   472   470   468   472   472   470   473   473   469   471   465   463   470   474   477   479   484   483   477   471   472   477   482   484   485   483   486   488   489   490   491   493   493   492   493   499   510   508   501   490   484   486   484   491   495   500   501   505   504   498   496   494   498   499   496   492   492   489   490   487   480   484   489   489   491   493   497   504   505   503   502   500   498   496   490   489   493   494   490   486   480   482   479   479   486   490   488   488   493   497   494   492   491   491   489   493   499   494   494   494   490   490   493   502   511   507   500   504   507   504   506   509   508   512   519   521   515   516   513   506   504   507   516   519   528   530   534   538   545   552   558   566   569   566   558   548   548   552   555   558   557   556   552   551   546   547   548   545
430   428   422   417   425   436   440   443   444   446   439   433   430   433   438   440   435   435   433   426   419   417   428   435   441   446   447   451   455   448   442   450   459   463   461   453   449   451   456   460   462   462   459   456   456   454   455   457   458   455   454   456   459   462   455   452   451   449   447   449   452   458   454   451   451   449   448   453   450   452   457   459   456   456   461   462   457   455   460   462   463   463   461   459   460   458   456   455   455   455   456   463   466   462   461   462   469   473   472   476   470   470   470   468   470   476   475   473   478   478   477   479   472   472   479   472   481   481   482   483   476   473   474   471   475   480   483   482   486   486   483   485   492   497   497   495   495   506   503   500   491   489   483   486   485   491   499   499   499   499   501   500   495   496   497   497   490   494   494   490   488   485   483   484   483   491   492   492   499   509   510   506   498   495   491   488   487   485   488   492   490   490   492   490   488   483   483   483   482   486   493   501   501   495   496   498   501   502   500   498   495   493   491   493   494   499   508   507   507   507   499   505   507   511   513   516   521   527   527   522   508   506   508   523   521   532   540   542   542   543   550   561   580   587   594   576   573   565   561   565   566   564   563   561   553   547   547   553   552   550
427   419   417   418   425   430   435   439   444   440   435   429   433   438   445   449   450   447   436   418   413   412   421   433   444   446   444   444   446   445   445   452   464   467   465   457   451   449   452   454   454   459   462   456   448   447   447   448   448   451   453   455   459   458   454   451   448   448   448   449   451   453   449   448   449   449   446   448   449   448   453   460   459   461   468   460   454   453   465   469   470   469   466   464   463   460   454   453   454   452   457   462   465   463   465   468   476   477   477   475   466   462   461   467   474   478   479   470   471   471   473   482   480   469   471   472   472   485   481   483   477   478   479   473   472   478   479   482   483   484   481   484   495   500   503   503   495   502   498   498   489   479   478   484   487   497   503   502   497   496   496   493   491   495   498   499   500   499   496   493   488   485   480   482   487   496   498   493   498   513   516   507   492   491   484   483   486   485   491   489   496   500   501   498   489   482   475   475   478   483   488   498   502   500   497   498   501   506   503   498   495   494   493   493   494   500   506   512   515   514   505   516   511   515   516   515   522   531   537   532   523   510   516   526   527   537   543   551   551   542   547   573   585   599   593   597   586   578   572   571   566   566   569   566   557   554   557   561   555   555
434   425   422   424   428   430   434   438   436   432   428   429   435   443   453   456   463   457   450   418   412   418   426   434   443   440   442   449   452   448   454   457   463   467   466   465   457   450   447   449   452   450   451   448   442   442   447   451   453   453   454   456   457   454   454   451   448   446   444   444   444   445   448   449   451   451   444   440   446   448   454   458   459   459   466   469   463   462   475   474   473   473   472   470   467   464   456   455   454   452   461   466   464   465   468   469   472   475   476   469   463   463   468   475   476   479   470   469   468   465   468   476   473   473   478   477   475   475   479   478   479   480   477   478   476   479   483   488   486   487   485   486   492   500   502   502   496   499   496   491   486   478   486   488   492   499   503   503   501   499   499   496   495   495   495   497   498   497   496   492   490   485   487   488   491   495   498   496   499   506   510   502   489   486   486   484   483   486   492   498   498   510   507   500   491   478   473   473   480   482   491   496   502   505   504   503   508   507   505   503   501   500   501   502   502   501   503   510   513   510   509   509   512   511   511   509   518   530   533   530   518   514   519   525   527   538   544   548   554   546   550   584   596   600   596   591   598   587   577   573   566   567   573   569   568   574   565   567   560   554
429   424   428   429   429   430   430   436   436   431   429   433   438   446   452   459   457   454   444   427   422   428   433   435   437   436   432   433   441   446   451   455   459   462   467   470   459   455   443   440   442   442   442   444   441   442   446   445   443   445   447   452   450   450   452   452   447   445   441   438   439   442   444   447   450   449   444   440   439   446   450   454   458   458   465   469   470   473   480   475   469   465   469   473   467   464   459   460   459   454   462   466   467   468   473   476   477   477   474   464   461   465   469   474   477   470   471   469   465   465   473   481   480   481   480   477   475   473   478   475   477   479   479   483   485   485   487   490   492   487   484   487   489   494   496   498   493   495   495   492   482   483   485   488   495   499   496   496   497   499   500   496   494   495   493   490   489   495   500   498   494   492   492   494   495   497   496   493   496   501   502   495   487   486   488   489   479   478   486   498   505   509   515   504   492   485   481   480   481   487   497   504   509   511   512   510   508   510   514   513   511   511   506   506   502   500   503   507   508   504   504   507   514   514   510   511   518   523   525   524   512   517   518   521   523   533   539   546   548   555   566   585   596   602   597   594   596   584   578   572   574   577   579   591   592   582   571   576   568   557
434   434   433   431   431   430   430   431   433   434   433   436   437   446   449   457   457   447   444   435   428   431   436   436   433   432   431   431   432   435   442   446   451   462   467   460   456   456   449   445   443   438   439   446   445   445   447   444   441   441   446   446   448   449   450   451   450   446   441   439   439   441   439   443   445   446   445   445   441   442   448   451   460   463   466   467   467   470   474   474   470   468   469   466   469   468   463   461   460   462   466   464   468   467   471   472   473   473   473   466   464   472   474   467   475   474   477   470   470   471   472   478   482   480   483   477   472   470   469   475   477   480   482   484   484   485   486   486   488   486   489   490   490   491   492   494   494   496   493   491   490   488   486   486   488   493   492   489   488   494   499   497   493   493   490   491   488   492   498   502   497   492   492   491   494   495   493   490   489   488   487   486   485   485   488   493   481   479   487   499   514   516   508   500   495   490   485   482   486   499   508   508   505   508   509   515   514   515   509   513   520   521   510   507   509   507   508   508   507   510   508   513   516   513   511   512   519   521   528   518   518   510   510   514   521   529   537   535   542   555   571   593   603   607   603   595   585   583   575   576   576   579   590   602   614   609   616   596   580   566
430   433   437   433   433   439   442   441   439   435   437   435   436   442   448   448   448   445   437   431   430   433   435   436   430   426   427   429   431   434   437   442   448   453   453   449   449   453   454   451   449   446   441   443   445   443   439   438   438   437   443   443   444   444   444   444   444   446   445   443   442   439   442   445   445   453   453   454   451   451   453   457   465   469   472   472   463   460   464   467   467   465   467   472   473   472   467   462   463   466   468   470   469   471   473   476   474   472   475   474   472   474   462   463   476   480   480   481   478   472   472   471   479   477   478   478   479   470   470   472   476   475   480   485   485   482   479   478   482   486   488   489   490   488   489   492   495   499   496   493   494   494   493   490   488   489   489   488   489   489   492   495   491   492   490   490   489   492   499   503   501   497   498   496   503   499   495   491   485   480   479   477   482   480   485   489   488   489   495   498   503   510   506   504   501   498   494   488   490   500   507   507   506   507   504   501   499   502   508   517   526   530   518   511   511   513   512   513   513   517   514   513   517   515   513   515   518   521   524   521   526   514   505   504   517   530   541   535   535   544   567   596   606   603   595   587   581   580   582   584   581   586   600   617   625   629   622   611   591   577
441   441   439   439   440   438   439   434   436   436   434   432   436   442   449   445   445   447   446   443   441   439   437   439   432   427   423   422   425   434   436   439   445   451   450   445   439   444   447   448   448   446   443   443   443   440   437   437   441   446   443   441   438   434   435   437   444   444   444   446   446   448   446   450   458   462   465   465   460   460   455   462   472   474   474   474   468   459   462   467   469   466   465   469   464   470   464   460   464   468   472   472   476   479   479   477   477   480   479   481   475   463   459   464   471   477   480   480   479   476   475   475   479   478   478   476   480   475   477   476   476   480   477   483   483   483   478   475   480   490   491   489   487   484   481   479   484   488   490   489   490   489   487   484   489   490   490   490   492   492   489   489   489   491   495   487   484   495   501   505   504   501   501   502   504   501   496   489   483   479   477   479   482   484   487   488   488   487   489   489   496   502   510   509   506   503   501   494   492   496   501   503   497   498   499   502   502   504   511   522   534   537   526   514   512   518   521   517   515   520   520   518   518   516   515   517   522   523   523   524   528   520   514   506   510   523   536   534   541   541   557   594   591   599   593   574   577   575   580   584   583   595   615   631   635   632   627   612   597   585
441   440   438   440   443   444   442   440   440   437   434   436   441   441   443   437   437   442   444   444   449   446   443   435   431   428   428   430   428   432   433   435   445   451   452   447   438   436   441   443   441   440   440   435   434   436   433   434   444   448   442   437   437   434   431   435   440   440   438   443   446   454   455   456   465   468   469   470   466   465   465   470   479   479   477   473   471   471   474   474   475   472   470   469   472   464   466   465   469   470   470   474   477   481   484   480   481   484   486   486   481   470   470   472   475   477   478   476   474   471   471   473   479   479   480   483   485   479   472   472   475   480   490   487   484   485   480   479   484   486   491   486   485   483   485   485   485   486   490   492   490   485   486   492   494   493   495   493   492   494   495   491   488   489   494   490   488   490   494   497   508   504   500   501   504   503   500   494   489   486   484   484   487   487   488   488   487   488   486   483   483   495   504   507   511   509   504   499   497   496   497   498   493   494   497   500   500   505   517   530   537   536   525   513   507   510   514   517   516   516   521   523   523   520   518   519   520   524   525   527   528   525   519   512   517   531   542   538   542   548   559   595   591   592   583   570   565   568   572   580   583   602   617   633   635   632   623   605   589   579
440   437   437   440   443   444   439   436   438   437   434   437   443   442   437   434   431   435   441   441   441   442   436   433   430   432   434   434   428   426   432   432   443   450   456   449   441   440   438   438   439   438   436   433   434   435   433   434   439   436   432   432   433   432   431   432   434   437   438   440   442   451   456   460   464   467   467   470   469   467   466   472   482   480   480   481   482   484   485   482   482   483   483   478   480   467   472   472   477   478   472   475   474   477   476   476   479   483   482   478   476   470   467   473   476   480   478   478   478   478   478   480   483   482   483   491   491   479   472   472   474   481   486   489   489   487   488   482   483   485   482   482   485   486   488   488   494   497   497   496   491   487   490   495   499   495   496   494   491   490   489   490   489   487   487   492   488   490   491   491   493   498   500   494   497   499   494   489   487   486   492   487   487   485   481   482   488   488   485   482   480   488   497   504   509   510   506   503   500   501   503   502   497   498   501   500   507   510   515   524   531   527   521   514   509   511   516   519   518   516   523   528   528   527   522   520   524   527   525   528   530   527   523   519   518   531   542   544   539   553   566   584   590   589   581   568   564   560   563   576   585   599   626   634   632   621   615   587   580   571
433   434   437   441   444   446   446   442   439   437   436   439   443   443   439   437   431   428   432   434   434   429   429   431   430   434   439   443   439   434   427   434   443   453   457   450   445   444   439   439   437   437   441   442   435   433   431   430   435   433   428   430   429   430   430   432   438   439   436   435   440   445   454   460   462   463   463   469   473   470   470   479   484   479   480   485   488   487   487   487   487   489   491   494   489   488   479   485   492   483   482   475   470   471   473   473   478   478   482   480   478   469   472   474   476   482   478   476   474   475   482   488   490   483   478   489   496   489   478   477   480   485   483   486   486   486   492   489   486   484   485   481   487   492   490   488   489   489   491   491   492   487   489   495   498   495   495   493   491   489   489   490   485   484   492   493   495   492   489   490   497   501   506   497   490   490   484   487   485   483   486   488   482   483   480   491   486   490   490   486   480   483   491   501   508   510   509   502   499   500   499   497   498   504   507   506   512   515   517   515   515   519   518   521   519   521   522   521   519   523   526   533   528   532   528   526   533   533   532   533   537   533   530   523   529   534   543   541   543   556   561   568   584   588   575   565   562   559   561   574   585   603   622   628   623   614   592   575   567   573
432   433   437   436   437   439   442   441   441   441   440   442   445   445   442   440   437   430   429   434   437   435   434   429   427   436   441   443   443   440   438   439   445   450   451   448   445   442   439   443   441   442   444   442   437   435   435   433   437   438   433   431   430   427   430   429   435   440   437   435   438   445   450   456   461   461   460   462   467   467   477   481   489   483   483   484   488   491   491   493   492   500   502   500   495   494   483   491   488   485   479   473   470   470   470   474   479   480   482   480   476   470   474   477   475   474   475   474   476   479   483   490   493   481   482   485   486   487   483   485   487   489   489   495   489   487   490   496   491   486   488   491   494   492   489   486   488   487   485   484   488   489   488   490   493   495   497   494   489   486   487   489   490   492   488   489   494   491   483   489   501   502   500   492   492   491   489   484   481   480   483   482   483   482   485   484   487   494   499   492   491   495   490   499   507   512   509   505   503   502   499   499   500   505   506   508   516   520   521   514   508   513   516   519   521   523   524   524   525   529   528   531   529   534   532   535   538   536   532   533   537   537   538   531   530   534   540   545   546   546   563   568   567   564   560   558   561   560   567   560   585   599   616   618   616   604   585   576   573   566
431   435   441   440   441   443   444   444   443   442   441   443   443   443   444   447   442   440   434   433   432   432   431   428   428   436   442   443   437   441   444   443   447   446   445   441   440   441   439   439   441   443   447   443   437   438   438   438   438   439   439   436   438   436   435   435   439   443   441   441   441   447   449   456   457   457   454   453   456   468   479   490   489   484   485   484   483   493   499   502   503   503   508   504   496   491   490   496   486   483   475   471   469   469   470   472   474   480   481   477   476   474   476   476   475   474   476   475   478   482   488   496   494   487   486   481   478   479   484   485   483   490   490   493   495   494   490   498   494   490   491   494   493   490   488   489   492   488   486   486   490   492   491   490   492   496   497   496   492   488   488   491   494   496   490   488   489   486   482   490   498   500   497   498   495   489   490   493   494   489   488   483   485   488   492   491   491   496   502   495   497   495   493   490   495   500   506   508   509   509   505   501   500   503   506   513   526   526   529   523   517   510   518   520   518   519   519   522   528   532   532   532   532   537   542   540   539   541   539   535   535   535   536   536   535   541   551   549   549   550   556   557   554   555   554   553   557   559   563   563   569   596   612   617   612   600   587   578   572   571
433   436   443   447   450   451   448   444   443   440   442   441   440   436   439   445   448   447   445   440   436   434   430   428   427   431   440   442   437   436   443   444   448   441   442   439   446   445   443   439   440   446   448   443   440   441   440   442   444   447   442   440   445   443   440   441   444   451   448   449   450   454   454   452   452   453   452   451   453   467   475   492   495   492   485   484   487   505   502   509   513   508   495   499   491   487   490   489   486   484   479   472   471   473   472   470   478   480   474   477   478   477   476   478   479   479   478   477   479   480   484   494   497   494   490   484   481   475   477   478   479   485   490   493   492   497   493   498   495   490   489   490   496   492   490   493   490   492   489   489   492   490   491   487   490   491   494   493   494   492   489   487   490   491   487   484   483   486   486   491   497   496   496   491   499   496   495   501   504   497   493   493   491   491   493   494   494   499   510   512   505   496   497   494   489   495   500   508   514   518   515   505   504   501   503   522   523   537   533   530   521   519   526   523   516   513   513   518   527   534   534   533   534   536   539   541   543   543   541   538   539   544   545   549   554   542   547   550   550   553   560   558   552   547   549   552   559   561   568   558   566   596   608   616   613   607   583   569   570   570
435   438   442   449   452   453   451   445   442   440   442   439   435   432   432   437   442   445   446   443   441   436   433   429   428   433   438   441   442   445   448   447   443   439   438   441   443   444   443   440   441   446   453   452   443   441   438   437   438   443   448   446   445   436   441   447   444   449   454   454   459   468   469   455   451   455   452   455   464   468   477   486   493   496   497   494   506   500   504   510   513   497   495   492   494   496   495   490   491   485   481   483   476   478   477   477   481   485   478   478   478   479   481   479   478   473   474   474   476   478   481   493   496   493   491   486   488   483   481   476   476   481   485   489   491   492   489   500   499   497   494   491   489   493   493   496   497   496   494   491   487   485   484   481   487   489   490   490   492   498   496   491   488   489   493   483   483   484   488   495   495   494   490   488   490   495   493   493   501   503   498   493   494   498   497   499   507   515   520   513   506   498   499   500   499   498   505   511   519   520   517   507   506   504   520   527   545   549   553   535   520   516   514   522   524   518   518   524   535   538   537   532   532   535   536   539   540   545   550   544   544   550   548   550   551   548   550   551   551   552   556   553   553   559   563   556   557   564   556   562   577   589   603   618   619   602   587   566   565   564
436   445   444   449   448   449   448   448   445   443   443   438   433   432   430   432   437   445   446   438   438   433   428   428   429   433   438   441   441   445   450   445   442   439   439   438   444   445   445   444   448   449   452   449   445   438   433   433   438   443   448   448   445   439   440   442   449   455   458   457   462   468   464   465   456   458   459   461   469   467   468   487   501   506   504   500   499   506   510   512   512   497   493   494   498   498   496   493   492   488   485   480   478   482   476   486   490   486   485   476   478   479   476   479   477   471   469   473   471   475   482   491   495   489   487   480   479   483   480   477   474   480   484   487   485   488   494   492   491   497   497   496   492   493   498   498   494   494   494   490   482   480   480   482   489   491   492   491   494   500   494   487   488   489   492   480   482   487   488   491   499   493   489   485   488   491   491   492   496   502   502   501   500   502   503   506   511   517   513   510   505   498   499   499   503   506   516   521   520   514   503   506   507   517   534   546   565   566   557   549   521   516   513   522   530   526   526   537   544   545   546   537   533   535   538   540   543   552   558   553   555   555   545   546   542   549   546   548   553   554   560   556   556   556   556   558   544   542   549   563   576   581   599   611   615   614   591   574   568   565
432   438   443   444   442   440   445   447   445   442   441   437   432   432   433   429   435   441   440   429   431   432   433   432   431   436   443   447   444   444   444   442   442   443   438   440   440   442   441   444   455   455   449   449   444   437   431   429   436   442   446   452   449   446   444   443   449   455   458   461   463   468   463   461   459   458   462   470   465   466   469   487   511   513   517   508   506   510   510   515   508   501   498   497   506   504   495   491   487   488   490   481   484   485   491   490   488   488   486   480   481   482   477   477   479   475   474   479   478   480   483   484   486   484   478   472   477   481   483   480   477   483   484   484   486   487   490   491   498   492   498   495   495   494   499   498   496   493   492   488   483   482   484   486   492   492   489   489   490   491   493   491   492   494   495   484   483   484   488   489   493   495   486   480   485   487   493   494   488   494   503   497   496   500   502   503   504   509   510   507   506   496   496   499   502   500   512   522   523   511   502   500   523   532   544   561   573   567   559   555   519   512   515   522   530   532   533   539   544   540   544   541   533   545   546   549   550   556   559   555   551   551   541   541   539   538   543   542   552   551   554   558   557   555   561   550   546   542   548   565   572   586   599   612   615   612   595   576   567   565
420   427   434   440   440   437   440   443   441   443   441   437   435   437   441   443   444   439   436   428   430   429   434   427   429   435   442   445   444   445   443   448   441   441   440   438   438   439   440   447   452   452   445   448   443   442   439   440   441   442   448   451   451   446   444   449   451   453   454   458   459   462   466   467   465   461   470   474   467   467   471   486   512   521   524   517   512   512   512   517   506   502   504   513   515   520   504   485   481   495   489   486   483   488   485   488   486   494   485   484   484   481   481   483   481   476   481   486   482   477   480   480   482   481   474   470   475   481   484   482   481   484   485   485   484   490   483   492   486   488   492   500   501   494   496   495   496   494   494   489   486   485   488   486   485   487   492   491   488   486   493   493   492   492   497   499   490   483   485   496   489   493   486   478   485   487   492   491   487   489   493   492   490   489   492   497   504   512   511   509   503   498   498   505   508   507   512   523   521   505   499   501   518   532   547   562   569   568   566   550   525   521   520   522   533   535   535   536   538   540   545   535   542   536   556   561   563   561   555   558   551   551   538   536   539   537   536   544   546   552   552   555   557   563   564   557   548   548   560   561   575   586   596   603   606   601   595   578   575   572
422   430   435   437   441   439   438   442   441   440   437   437   437   441   444   444   443   437   433   432   432   433   433   432   432   434   440   447   449   449   444   438   441   442   443   443   440   443   444   450   456   455   451   441   440   433   437   439   447   451   450   452   447   445   448   448   452   460   466   465   462   459   464   468   466   463   470   469   470   466   480   487   510   518   525   508   508   512   512   500   500   500   501   513   518   522   518   492   484   489   491   486   483   491   492   483   492   494   494   491   485   486   499   496   493   493   493   491   483   478   478   479   484   483   478   477   481   481   483   483   480   477   476   477   483   477   476   485   482   488   495   499   503   493   488   488   492   494   492   487   489   492   493   490   481   483   487   488   489   485   489   491   492   493   498   499   496   487   494   493   498   489   482   487   484   488   490   490   490   495   498   498   493   488   490   496   507   511   517   503   500   501   501   503   507   515   518   520   515   509   504   507   514   534   538   548   555   561   562   555   529   529   525   522   532   533   532   533   536   541   539   538   538   538   549   562   564   560   551   554   551   546   541   543   544   543   540   544   550   552   552   554   557   562   561   560   561   555   562   576   580   580   594   599   594   597   584   573   573   577
418   427   437   442   440   434   436   444   445   433   435   435   437   437   441   445   441   433   433   435   438   438   436   434   434   435   437   439   439   441   447   440   441   443   448   448   444   441   440   448   455   451   447   439   432   438   442   443   450   450   448   447   443   445   449   455   460   461   468   467   463   459   467   467   462   460   469   474   481   481   484   490   495   513   512   507   505   506   502   503   503   501   503   508   526   527   516   497   490   497   491   491   482   489   485   480   482   488   490   491   489   493   494   501   506   498   498   492   483   476   481   485   486   482   478   482   486   483   480   478   474   472   476   482   478   477   484   480   483   486   490   496   497   499   490   486   488   490   490   489   492   494   492   491   493   490   492   489   487   486   489   490   493   497   498   498   492   491   494   492   488   487   484   482   485   486   489   494   500   505   503   501   496   492   494   502   508   514   508   503   501   501   497   493   500   511   519   523   517   514   511   514   521   529   536   535   537   550   548   541   527   528   527   522   527   537   538   538   537   541   547   546   550   544   555   562   558   552   545   548   549   550   548   548   549   549   551   554   557   557   553   550   551   557   564   559   568   561   569   574   579   589   591   587   585   574   570   568   569   573
422   427   433   433   434   431   437   442   441   438   434   433   433   436   437   442   439   437   441   444   446   446   440   438   437   435   436   433   438   439   440   438   441   442   440   439   438   441   442   442   448   446   439   434   431   436   439   444   451   453   447   443   439   437   439   450   463   459   462   464   464   464   470   467   460   459   466   475   478   488   493   488   492   503   508   501   502   500   497   500   499   497   510   515   529   527   516   503   488   491   492   490   484   482   480   474   477   481   484   487   496   501   508   503   508   504   499   491   486   480   477   479   486   483   481   479   479   480   479   480   475   476   480   481   480   479   490   487   489   487   488   495   498   492   494   489   489   491   493   492   490   494   495   493   492   491   492   491   490   490   490   487   491   495   495   491   488   484   484   479   475   472   476   479   483   485   489   496   499   503   503   506   501   499   499   510   511   513   512   508   507   502   495   495   499   513   517   524   517   516   520   524   533   533   532   529   528   531   527   534   529   525   526   522   525   529   534   536   540   543   544   544   551   554   564   558   551   550   542   545   548   548   548   549   550   551   553   555   555   555   555   555   556   558   559   567   569   571   571   572   574   583   594   583   572   563   564   562   565   570
429   433   432   434   435   436   442   446   440   440   436   433   432   432   435   439   444   445   447   447   450   447   441   441   435   433   430   430   438   442   439   439   438   437   436   437   438   433   437   443   445   443   438   437   435   435   437   444   451   454   449   441   437   438   442   451   456   464   465   467   464   463   466   467   466   466   472   473   480   485   488   487   488   498   499   498   497   492   501   495   490   497   509   511   522   520   507   495   493   490   485   485   484   484   478   473   478   483   488   488   491   494   497   504   504   508   497   491   488   482   475   477   482   486   483   481   481   484   485   489   481   480   481   481   480   481   493   493   491   486   487   486   484   486   485   483   490   488   492   495   489   488   490   494   496   496   494   491   491   493   493   493   494   495   490   485   482   475   478   475   472   466   470   478   483   483   490   495   493   497   504   506   505   503   507   515   514   510   519   517   514   507   502   502   505   512   516   511   515   515   520   527   533   533   525   525   518   525   530   534   522   529   527   525   525   533   534   535   535   539   543   545   552   558   564   561   551   549   545   536   540   543   548   553   555   552   550   552   556   557   555   554   555   556   564   568   568   570   571   573   575   578   581   576   560   566   566   566   568   567
435   433   436   438   439   444   447   447   451   446   444   441   438   438   439   442   441   443   446   451   447   447   447   441   436   429   440   435   441   444   444   438   436   431   429   430   431   431   434   438   441   437   435   437   437   438   438   443   448   455   452   445   440   441   448   453   453   463   470   467   465   464   463   462   465   471   479   485   492   487   486   483   487   497   491   490   491   486   487   495   493   483   496   502   499   499   493   496   493   494   490   491   492   487   480   480   481   486   488   489   493   486   495   501   504   507   509   491   487   483   476   476   479   483   481   487   486   488   494   491   488   485   484   485   481   482   491   491   485   485   485   483   485   487   485   483   483   484   487   494   487   481   482   487   486   488   489   489   491   495   493   487   484   486   483   478   479   479   476   471   473   465   472   480   489   495   497   493   491   495   498   501   500   502   508   514   518   517   521   525   527   517   513   511   512   512   516   510   516   515   517   525   532   532   530   518   520   521   519   527   528   529   526   524   522   527   533   534   532   536   542   552   549   559   556   563   557   548   539   531   533   554   561   564   570   571   560   560   554   556   559   559   566   571   568   567   569   571   572   574   576   579   581   573   564   567   571   569   565   562
442   442   444   441   444   448   449   448   450   447   443   443   444   441   439   434   436   442   448   451   449   446   445   440   436   435   434   437   445   447   442   449   445   438   435   435   435   432   430   426   427   432   437   441   442   442   438   442   453   455   458   455   446   443   447   449   453   459   458   463   466   464   463   465   465   466   482   495   495   495   485   483   491   492   488   489   490   482   478   475   477   476   490   486   490   489   493   493   495   497   494   491   489   487   486   492   492   487   489   490   483   487   499   504   506   519   515   496   489   483   477   486   480   477   476   479   487   491   494   491   485   488   491   490   484   484   492   492   489   488   488   488   486   487   486   482   483   490   493   494   488   478   480   482   485   488   493   491   492   491   492   487   483   477   476   477   478   482   482   481   475   473   471   475   487   498   500   496   494   498   497   497   500   504   508   513   519   519   520   526   528   525   522   516   514   513   516   522   520   521   518   524   530   535   528   522   522   514   518   519   527   526   526   525   527   526   525   533   535   538   537   544   554   549   543   550   550   544   533   528   530   559   569   573   577   573   564   560   559   556   556   558   565   567   565   567   568   570   573   575   576   577   578   577   569   566   569   568   565   565
446   451   456   451   451   454   453   451   453   450   448   444   450   439   435   433   439   441   443   445   443   444   444   445   440   437   438   441   447   450   441   446   451   451   449   443   441   429   424   426   427   426   437   447   449   443   433   438   450   455   461   457   450   442   441   443   445   443   448   462   468   464   460   461   466   468   486   499   500   506   502   497   496   498   493   488   484   482   480   479   480   476   477   479   485   488   495   498   501   506   502   486   485   487   490   501   504   499   498   496   494   496   496   508   516   522   515   505   500   493   489   485   479   474   471   474   478   487   493   486   479   490   496   500   495   494   496   496   492   489   485   487   489   489   483   481   481   487   492   498   490   485   484   481   481   482   486   486   487   487   488   485   479   479   479   480   484   487   478   479   481   469   471   477   489   498   502   502   500   502   497   492   494   501   507   510   516   518   517   516   515   515   519   519   521   522   520   525   528   526   525   523   521   516   515   516   509   507   523   527   525   525   526   527   527   525   529   533   528   531   545   554   559   549   549   546   542   538   531   535   542   549   565   568   571   572   564   556   563   561   561   560   563   564   565   566   567   570   573   576   575   575   574   576   568   566   571   572   570   571
448   451   456   452   450   448   452   458   461   455   450   450   447   443   438   434   443   446   446   443   443   446   448   448   444   441   441   442   447   449   445   444   453   453   451   450   441   439   432   428   426   425   436   449   449   440   434   438   444   450   454   457   453   444   441   450   446   447   448   452   462   461   459   459   464   474   490   493   513   509   506   510   495   494   494   493   490   487   484   487   487   483   481   481   489   495   496   498   513   519   514   502   486   492   496   507   506   497   496   497   501   499   508   510   515   520   506   495   493   488   483   480   474   470   471   476   481   486   486   482   483   494   497   498   501   496   496   494   494   493   490   486   486   484   482   483   478   480   486   495   491   491   488   484   484   485   483   480   482   481   482   480   479   481   484   484   487   491   492   491   481   469   464   474   486   494   500   502   506   506   503   499   505   505   513   519   524   517   515   508   506   512   520   521   524   524   529   536   530   529   525   523   519   515   507   507   506   511   519   523   522   520   523   522   521   522   524   524   529   535   549   562   560   554   551   551   550   535   538   548   547   544   559   567   568   569   561   560   557   563   564   560   561   565   565   566   566   570   573   577   575   573   571   569   564   566   570   577   575   574
454   454   451   449   447   443   449   457   463   460   452   449   448   446   445   452   445   450   448   444   442   445   445   446   442   441   442   444   445   445   445   445   451   449   449   449   453   444   435   429   421   426   437   446   445   441   437   438   443   449   452   452   452   451   448   450   449   448   444   451   461   464   463   457   469   478   493   507   519   517   519   520   510   504   496   493   486   492   497   496   493   491   486   484   490   495   499   505   513   516   520   510   509   503   493   494   503   496   497   501   509   515   513   514   518   506   495   480   482   482   486   481   470   471   473   476   481   486   490   485   489   493   495   493   489   492   490   494   494   495   493   485   482   483   486   482   477   477   484   489   492   492   484   485   486   485   483   483   483   482   482   486   484   481   482   485   491   497   498   497   486   475   469   465   481   491   495   504   512   515   509   511   514   516   519   524   531   530   517   507   508   507   518   521   523   526   533   537   530   525   522   521   515   511   508   505   513   526   534   530   525   522   521   522   520   521   524   523   533   539   551   566   564   567   560   556   556   534   535   546   554   549   557   567   567   567   560   562   557   559   559   557   557   565   567   567   567   571   575   579   576   573   570   567   571   571   571   571   574   567
459   458   451   443   443   443   444   455   458   452   448   450   449   448   454   454   456   456   452   445   441   443   445   447   445   450   448   450   447   449   447   443   443   444   442   449   448   449   439   440   426   429   435   436   441   444   448   446   445   445   446   447   451   455   453   450   447   446   445   450   463   465   464   459   471   472   488   502   522   519   526   524   516   511   503   494   488   498   498   500   495   496   498   483   490   501   499   504   511   516   520   522   512   498   495   494   495   494   499   504   504   518   514   514   507   496   487   477   480   483   482   477   473   475   474   475   478   482   486   484   484   486   489   487   481   481   488   491   497   497   492   487   485   490   493   488   485   479   482   478   486   487   481   482   484   486   483   485   485   483   481   485   482   480   482   484   493   496   495   489   485   481   470   469   481   493   496   505   513   524   520   518   517   519   523   523   531   524   518   514   513   510   514   519   525   530   533   526   520   521   520   522   521   509   518   513   519   540   546   539   522   519   523   525   525   529   530   519   531   539   551   556   567   570   563   566   552   537   537   539   542   549   553   560   560   559   558   564   564   560   557   558   563   569   569   569   569   573   577   581   577   573   568   563   567   564   566   569   568   562
463   463   451   446   445   440   443   448   447   447   444   444   455   454   460   461   459   458   451   446   444   446   448   451   457   457   455   459   458   451   449   443   444   441   442   449   455   455   454   447   439   428   430   432   441   449   454   452   448   444   445   445   449   454   450   446   441   439   441   449   460   465   467   466   472   464   472   496   507   514   514   517   517   522   505   500   498   496   505   497   494   496   494   491   483   494   499   503   508   514   523   517   511   504   495   492   492   495   501   501   509   517   516   512   504   488   471   472   477   480   480   481   478   475   475   473   474   480   487   483   479   479   481   479   482   486   485   484   493   497   498   495   492   494   491   489   489   481   473   477   480   483   477   482   482   482   483   486   484   478   479   483   483   483   489   483   486   489   480   486   481   476   471   470   479   487   493   502   513   527   524   516   513   516   519   525   512   512   520   521   515   515   516   518   523   528   516   513   509   513   519   527   528   515   515   512   537   553   556   539   529   525   527   528   522   523   521   523   525   525   543   549   556   564   564   565   559   557   539   543   546   551   555   557   554   556   565   567   565   559   556   559   565   571   571   570   570   574   579   583   578   574   565   566   564   569   568   569   569   566
456   457   451   451   442   436   441   442   444   442   446   445   459   461   461   460   456   449   447   443   444   447   453   456   456   453   454   458   456   454   448   442   443   444   450   458   465   463   461   444   436   428   430   431   440   444   451   452   446   444   445   439   445   451   447   447   441   441   445   449   456   462   465   468   470   465   471   488   496   511   511   514   519   516   510   510   498   491   494   501   495   494   493   493   490   490   496   500   507   510   511   518   512   506   500   498   496   498   493   496   503   515   520   516   493   485   476   477   479   482   485   482   481   477   473   470   471   472   473   472   486   485   472   470   485   486   486   488   490   490   498   491   489   491   495   485   477   472   472   475   481   481   479   482   481   484   483   481   479   476   478   481   481   482   488   479   484   484   487   486   479   476   472   474   478   478   482   495   508   515   513   503   503   512   517   517   495   496   511   519   517   519   513   511   516   514   513   511   512   513   521   529   533   525   520   536   549   556   562   550   530   529   533   527   522   521   521   519   523   523   524   534   545   555   559   559   559   560   550   546   545   550   555   558   556   554   563   567   562   561   560   564   569   571   570   570   570   574   578   582   578   569   564   560   559   565   568   569   568   567
449   448   448   444   441   434   439   443   444   441   448   450   456   466   459   465   457   450   442   441   447   448   457   464   458   453   454   453   449   444   438   440   445   443   447   457   463   461   459   441   424   427   428   431   438   439   444   446   445   445   443   442   443   446   448   446   444   445   447   452   454   459   461   460   468   477   474   485   497   496   512   508   512   514   511   508   490   488   485   491   489   488   490   490   488   487   493   503   509   508   505   508   508   508   501   504   502   497   502   498   505   512   516   507   495   489   482   480   482   486   487   484   481   481   478   477   475   475   470   473   471   475   471   470   471   474   471   472   471   469   483   485   490   496   482   477   475   471   472   477   479   480   481   482   482   483   483   481   479   478   480   483   481   482   484   482   483   485   486   485   478   474   474   480   484   479   485   491   491   501   497   491   495   502   507   498   491   490   495   499   503   508   507   508   509   507   504   505   509   514   518   522   526   533   539   548   560   563   562   554   533   536   540   533   529   528   531   526   525   522   524   526   536   547   550   550   548   548   555   551   550   551   553   554   556   551   560   561   563   562   564   566   568   570   570   570   570   573   577   580   577   567   562   562   560   562   563   566   562   558
446   446   448   451   442   434   441   446   444   444   450   454   458   464   469   467   460   443   440   438   444   448   452   457   459   458   458   455   451   449   441   439   442   442   441   445   458   458   456   439   425   428   432   434   446   440   439   441   446   445   445   444   444   449   451   453   450   448   444   446   456   459   460   461   469   483   480   489   498   499   507   503   503   512   513   501   490   487   487   484   489   487   484   486   488   488   498   508   507   504   498   499   504   505   508   514   508   504   501   497   511   513   509   497   492   480   475   477   482   487   492   489   486   486   481   480   478   475   470   468   469   474   472   472   474   466   471   468   476   473   475   480   483   476   472   474   474   472   468   473   479   480   482   485   487   490   485   479   480   478   481   483   483   482   483   486   488   487   484   483   482   478   470   473   475   484   486   487   492   494   495   496   495   499   489   486   487   491   495   499   501   499   500   506   504   503   506   509   508   512   514   511   521   529   538   549   558   564   559   548   528   535   537   538   534   536   532   530   532   527   528   530   534   543   547   545   541   541   550   551   556   553   553   549   549   545   546   553   559   565   566   565   568   570   570   570   570   573   576   579   577   566   559   562   557   558   564   564   568   564
451   451   445   456   447   442   445   450   452   456   457   456   463   464   468   468   462   446   441   441   445   451   453   452   451   448   449   454   452   448   441   439   442   442   442   446   450   450   448   435   430   431   432   435   439   440   438   442   444   445   447   447   445   451   452   449   447   448   443   444   449   458   461   464   469   488   493   494   502   493   499   503   496   499   502   502   488   486   485   484   488   485   482   479   484   487   497   505   501   501   498   496   504   503   502   509   510   506   504   507   514   515   506   492   482   475   475   472   476   484   486   483   483   487   480   477   478   480   477   474   472   471   467   468   471   473   469   472   476   469   471   476   476   468   466   469   476   474   473   474   486   481   478   481   486   489   490   480   480   479   481   481   477   480   482   485   484   485   488   488   488   485   476   475   482   486   489   494   495   496   499   502   500   493   483   482   485   490   491   487   487   492   495   503   504   503   504   504   503   506   507   510   515   522   540   550   557   560   553   532   532   535   543   536   540   539   534   528   529   531   533   528   536   542   550   548   545   543   551   547   550   554   551   547   548   552   555   556   558   562   565   565   567   569   569   569   570   572   574   576   575   564   560   563   562   560   560   564   564   562
469   456   451   454   449   452   451   458   462   464   465   466   460   469   470   472   474   451   441   439   445   447   446   446   444   441   445   449   449   446   442   439   444   442   448   441   445   443   441   440   436   436   430   442   446   451   448   450   448   448   447   450   450   451   449   449   451   448   451   454   453   455   461   470   481   488   498   497   497   490   487   488   490   497   501   495   483   483   483   482   495   489   483   478   477   487   493   503   502   497   495   495   496   500   498   503   504   504   508   515   523   522   516   497   477   474   475   475   476   482   482   485   486   486   476   473   475   479   478   473   468   460   457   461   465   473   471   469   473   468   467   466   464   465   465   470   479   480   478   478   481   481   477   479   483   483   484   477   475   474   478   479   477   480   483   484   477   479   489   493   505   504   505   496   494   493   489   490   491   489   493   499   505   492   486   484   488   493   493   489   486   487   487   494   501   503   504   503   502   499   500   507   513   522   544   548   549   554   541   529   524   532   540   535   539   537   533   533   532   535   535   533   539   551   549   550   552   556   546   553   555   553   556   562   567   564   575   569   565   566   564   565   567   568   568   569   569   571   572   573   574   564   555   559   560   559   559   564   567   566
463   462   458   463   463   464   462   465   464   466   471   472   475   476   478   471   475   455   447   440   440   444   449   450   447   446   447   451   451   451   445   442   445   441   438   438   441   444   447   451   449   447   443   451   457   454   450   451   458   455   453   454   451   448   448   448   456   459   457   458   461   457   463   475   489   493   491   498   496   494   492   486   485   493   494   490   477   477   485   491   499   492   483   479   482   489   489   497   504   499   502   488   496   497   498   500   501   509   520   525   524   523   516   483   479   483   482   482   480   481   480   480   480   479   476   475   472   476   476   471   466   461   458   461   461   466   469   473   469   468   467   471   472   471   471   476   482   483   481   481   483   480   478   480   486   487   483   475   474   473   477   482   485   487   488   485   478   479   496   506   509   518   523   514   504   498   492   485   483   483   483   488   490   490   487   490   492   497   494   492   484   476   477   481   489   493   498   504   502   498   499   506   509   514   529   546   547   537   534   524   522   529   540   546   538   534   532   532   545   538   538   535   542   546   547   550   560   575   568   561   558   555   560   568   569   570   571   578   568   563   564   565   566   567   568   568   569   569   570   570   572   563   557   554   557   556   561   569   567   562
463   464   464   462   462   459   454   457   465   468   475   479   476   478   481   477   475   463   451   447   442   439   443   448   447   445   448   452   459   460   456   451   446   439   436   437   446   450   455   461   461   459   453   456   463   452   449   453   457   457   458   467   463   458   457   457   456   459   456   455   457   458   467   485   492   503   498   499   496   490   489   489   487   490   493   482   479   488   491   496   494   493   490   484   484   489   490   495   501   500   492   485   490   501   496   500   504   514   520   523   525   521   520   490   484   490   493   490   483   477   477   479   476   477   480   479   478   480   480   479   471   471   463   466   461   464   468   471   467   466   472   474   480   482   483   485   483   482   480   482   478   478   480   479   482   484   484   480   477   478   479   480   487   489   491   488   482   481   494   515   524   524   530   529   515   494   493   484   480   474   472   477   483   476   485   487   492   495   487   482   476   473   479   482   490   493   504   505   504   502   502   506   508   514   519   525   525   526   519   522   524   529   539   543   539   532   531   546   550   546   537   532   543   548   551   550   572   568   573   565   561   560   561   569   570   566   571   569   561   562   563   564   566   567   568   569   570   570   569   569   571   563   555   558   551   559   560   570   575   572
461   455   457   458   461   460   456   458   467   470   471   474   474   477   485   484   476   469   465   456   449   446   445   448   449   447   451   454   462   466   456   449   447   445   441   444   452   455   461   461   466   460   460   458   456   454   449   450   451   455   461   466   464   462   459   461   469   457   452   453   457   463   477   487   499   499   503   501   496   494   486   490   493   492   485   477   478   486   489   493   492   491   490   488   481   484   485   488   496   498   488   488   491   491   498   503   506   507   514   524   530   525   496   485   488   491   495   492   486   478   479   481   476   476   481   482   481   479   479   477   471   469   466   467   467   470   467   471   471   470   470   478   481   489   487   490   485   483   476   478   477   479   479   482   488   488   487   484   479   479   481   480   484   486   482   482   482   479   488   512   517   526   533   527   516   495   489   476   477   478   474   472   473   475   478   484   486   484   479   469   469   471   482   485   494   500   509   510   504   500   501   505   504   513   519   519   517   517   516   518   520   529   537   538   538   540   541   544   551   548   539   542   552   547   545   569   574   575   569   564   566   568   567   567   566   563   561   563   561   561   562   564   566   568   569   569   570   570   569   569   565   564   563   562   561   560   561   567   575   577
458   456   458   458   457   455   456   455   471   471   466   469   467   471   480   480   475   472   473   461   450   447   446   448   452   453   454   457   462   464   461   455   449   447   446   448   452   448   449   453   457   461   460   459   454   455   457   457   453   457   461   466   464   467   469   488   491   483   468   461   463   477   488   492   493   499   492   491   496   496   494   491   492   487   486   478   473   475   470   476   483   482   488   492   479   474   480   497   502   499   493   482   486   500   510   504   507   510   513   523   529   519   494   488   486   490   495   490   489   489   486   480   480   478   480   484   483   480   481   481   481   481   477   476   477   480   479   477   475   474   473   476   481   483   485   487   481   476   473   473   474   478   482   484   489   484   480   476   472   474   477   477   479   477   473   476   479   478   483   504   520   521   533   524   509   495   484   474   473   477   476   475   474   477   479   478   478   476   472   471   473   481   485   489   493   496   501   505   494   497   501   506   502   509   518   522   522   520   519   524   530   524   532   533   535   536   544   545   553   552   543   553   555   552   557   562   562   559   556   558   561   567   571   571   564   562   555   560   560   561   561   563   566   568   569   570   571   570   569   565   565   561   564   569   571   562   563   570   569   571
467   461   462   463   455   449   451   463   468   466   464   462   460   466   471   476   471   470   470   462   452   447   447   454   458   457   453   453   458   460   460   458   457   452   449   447   447   447   447   448   446   448   454   456   458   460   462   462   463   464   469   482   482   480   505   507   504   496   483   485   488   498   503   506   500   494   495   496   497   498   501   493   486   487   488   481   473   467   466   465   471   480   481   487   477   479   480   491   496   494   494   488   493   504   507   505   507   515   526   525   519   505   488   487   485   479   490   499   504   495   489   488   483   477   479   481   479   478   480   482   478   477   479   481   480   479   479   478   477   477   480   483   487   489   488   484   479   472   469   469   475   480   486   483   486   485   476   465   464   468   473   474   473   472   471   472   481   485   499   509   518   525   526   530   506   494   480   473   471   476   479   477   477   484   481   478   474   471   472   476   482   485   484   488   489   486   487   491   495   498   503   510   510   513   517   519   522   523   525   533   536   526   525   528   530   534   543   545   543   548   546   558   564   555   561   562   550   543   544   547   560   554   563   563   563   560   555   559   561   562   563   564   565   567   568   570   572   571   565   562   566   556   557   570   568   566   563   565   561   555
466   466   460   459   454   461   450   457   459   460   462   466   459   457   450   468   465   465   466   465   457   452   450   451   454   454   453   451   452   455   455   455   457   455   453   454   453   453   451   452   447   446   446   447   446   449   454   458   462   465   475   482   491   504   518   515   511   505   499   493   500   513   520   514   512   502   498   496   501   499   499   502   481   486   485   481   473   464   461   461   471   484   494   490   481   477   480   485   484   489   492   492   498   512   508   505   508   523   522   520   511   499   485   486   485   480   484   503   508   504   496   493   495   478   472   479   478   476   477   477   476   474   478   480   481   478   476   477   480   480   480   481   481   481   479   480   478   474   473   472   475   479   482   482   481   479   473   460   458   463   468   472   470   464   461   469   481   489   503   513   515   519   531   525   504   498   486   478   481   489   487   484   484   479   484   481   480   476   474   478   481   481   483   485   488   487   486   488   492   497   506   512   510   508   515   518   521   523   531   534   531   523   520   525   529   534   536   542   543   547   556   559   559   557   556   555   546   544   545   549   552   561   558   554   552   554   554   558   561   563   564   565   565   565   568   570   573   572   565   562   557   557   557   563   571   568   562   559   556   551
459   459   459   458   460   458   457   457   453   453   458   466   465   445   446   448   458   458   460   463   467   459   456   449   450   448   447   448   447   450   451   454   452   454   455   459   462   464   459   450   446   442   443   446   449   448   451   455   459   460   468   477   505   513   523   525   519   509   493   495   508   519   519   520   511   505   501   500   500   499   498   498   499   482   480   477   475   464   457   470   486   493   495   495   487   481   490   489   486   488   489   493   499   509   505   502   508   525   521   517   509   485   484   483   483   480   484   498   505   504   497   493   489   483   480   479   478   477   476   478   474   472   477   481   482   479   475   477   483   481   481   481   477   474   474   475   475   472   475   475   474   480   481   480   476   475   472   466   463   467   471   470   469   462   458   464   478   487   496   506   510   517   514   520   505   495   493   491   493   494   495   493   489   487   484   484   484   478   475   474   475   477   479   482   487   489   488   490   486   490   501   511   513   510   512   511   516   524   537   539   532   523   516   519   527   532   535   542   546   551   556   560   558   554   549   551   546   545   546   552   554   558   554   547   545   547   551   560   562   562   566   565   565   564   567   571   574   569   567   562   560   562   561   555   561   566   565   560   558   554
455   451   450   451   451   452   452   455   452   456   464   472   458   449   446   443   456   460   464   463   463   462   464   460   459   456   446   446   446   445   451   451   448   451   453   459   461   465   459   451   447   442   442   446   448   450   451   455   459   460   464   481   507   517   520   530   522   507   494   496   512   517   516   513   512   504   503   504   501   501   501   499   500   493   490   488   485   471   476   481   484   491   492   493   488   489   484   487   485   483   493   496   499   504   500   502   506   514   520   516   499   481   482   478   478   479   485   489   494   502   497   491   488   489   488   486   482   478   477   476   475   474   478   479   480   479   479   481   483   482   479   477   474   476   477   470   474   474   479   478   480   482   482   481   476   474   478   473   474   474   475   472   467   462   459   463   474   480   478   477   494   508   521   516   509   502   500   493   490   492   497   497   495   490   486   484   486   474   474   474   474   479   484   482   486   490   488   486   488   493   496   504   509   508   511   511   515   524   534   534   531   520   515   519   526   531   536   543   554   557   558   559   555   545   546   550   548   546   544   545   549   554   553   544   541   545   547   555   554   558   562   565   565   566   568   570   572   568   564   561   556   556   561   561   563   568   567   560   564   564
447   449   450   450   451   449   452   453   454   457   469   466   473   450   447   453   456   458   464   467   473   468   469   464   460   452   446   448   449   450   451   454   455   451   456   457   459   457   455   451   448   447   448   451   449   455   453   451   453   454   460   488   497   511   519   527   521   500   492   497   512   517   511   509   500   502   504   507   511   505   500   499   498   494   492   490   485   480   474   474   483   488   488   487   486   490   487   480   478   486   490   488   488   493   504   501   504   509   514   507   488   481   477   476   475   476   485   486   485   491   496   491   490   491   490   489   484   481   479   478   477   476   476   476   479   478   478   477   479   482   480   478   478   475   473   470   471   473   475   478   479   480   482   484   481   475   479   475   474   476   474   473   472   471   466   469   474   475   471   478   479   496   506   512   503   495   489   484   481   486   490   496   498   496   495   492   485   480   478   478   482   487   488   489   494   492   489   489   491   496   499   501   502   497   499   507   514   523   528   530   518   513   515   522   526   537   545   553   554   553   553   554   548   545   544   542   546   545   544   541   544   549   546   544   544   547   552   555   552   553   558   564   566   567   568   569   566   564   563   560   554   554   555   555   561   568   566   562   556   550
446   448   453   450   448   447   448   451   453   454   460   466   466   457   456   461   457   464   471   470   473   475   474   463   453   446   447   452   454   457   460   460   461   460   464   462   462   457   455   449   447   446   451   449   452   452   448   445   448   453   461   489   502   517   513   514   512   506   496   501   514   515   514   515   507   503   496   503   505   505   493   496   499   500   503   498   490   484   479   478   481   488   491   484   485   486   486   480   482   489   490   486   483   492   497   498   494   508   505   495   483   479   477   474   470   470   469   474   476   478   493   496   496   495   487   489   481   481   477   476   481   479   472   472   475   477   473   474   476   481   484   474   473   474   477   464   467   470   469   470   474   483   485   483   475   469   474   477   475   472   472   472   474   477   473   472   471   473   471   475   485   490   502   504   491   488   487   484   482   484   486   497   501   508   501   495   489   485   486   486   486   487   492   499   502   499   495   495   492   494   504   505   502   498   496   499   508   514   522   527   522   515   517   525   529   538   546   548   549   550   551   552   548   545   539   535   539   541   545   546   544   549   547   544   547   551   556   559   558   559   559   561   565   569   569   565   556   553   565   558   558   554   552   554   558   566   568   562   560   555
446   460   461   454   453   440   441   447   450   453   456   462   457   458   454   460   456   463   469   472   479   474   473   468   460   455   457   455   456   463   467   464   466   467   466   465   463   460   459   457   450   449   454   459   459   454   448   442   446   457   465   482   508   511   506   504   507   505   504   509   507   520   514   511   511   507   501   503   504   500   494   495   501   501   501   502   500   486   489   489   491   492   493   486   486   487   486   481   485   493   491   494   488   484   493   497   486   492   492   488   480   475   478   479   476   472   469   473   472   476   488   502   497   495   489   484   478   479   474   474   477   478   469   468   467   468   467   468   478   484   484   479   473   472   468   461   458   465   468   471   471   480   482   480   473   470   469   471   469   471   471   471   474   478   475   470   468   469   470   473   478   483   484   486   483   482   486   485   485   486   493   494   501   504   506   494   488   488   488   487   486   488   491   495   503   505   508   506   505   505   509   509   502   496   492   497   503   507   514   517   513   508   511   519   524   530   538   545   549   544   548   546   552   542   535   530   532   537   543   544   546   545   547   543   550   551   552   558   563   563   561   560   562   562   561   559   560   555   556   562   552   552   549   552   557   561   560   553   549   549
450   456   459   457   447   439   433   441   447   453   454   455   453   455   458   458   458   461   465   472   469   470   471   466   463   454   451   454   453   460   471   476   473   470   471   462   461   456   456   454   448   451   458   462   460   455   450   447   447   450   461   472   496   502   503   503   505   503   510   491   488   509   515   516   509   504   508   505   502   491   486   491   502   495   497   500   500   500   502   495   488   491   490   489   489   488   494   494   494   495   495   490   476   476   480   493   492   491   481   473   477   478   480   483   485   482   480   479   478   479   493   495   501   492   484   482   479   477   476   478   476   474   464   463   465   465   464   466   472   483   483   478   479   477   473   457   460   462   470   472   473   475   476   476   475   470   464   466   467   470   472   472   474   478   475   469   468   467   468   466   466   470   473   476   479   482   485   484   484   487   484   495   500   507   502   496   493   492   492   496   495   497   493   493   493   496   507   514   516   505   510   500   497   501   505   504   508   508   512   512   512   513   517   517   518   520   523   531   538   525   526   527   532   527   518   517   518   524   533   536   536   536   535   540   549   546   545   547   552   556   558   555   555   552   557   556   553   555   555   547   547   547   545   552   557   552   559   550   550   551
451   446   442   436   435   436   429   436   445   451   453   456   453   454   460   462   455   454   467   468   467   470   471   467   460   449   450   454   459   464   475   482   476   472   467   460   458   457   457   459   452   451   461   465   468   466   456   453   454   457   464   465   478   489   493   491   489   483   490   488   489   490   506   514   509   502   508   505   496   486   485   488   504   497   498   500   503   502   506   498   490   482   484   486   482   488   496   497   496   493   488   481   472   470   474   478   482   482   475   472   473   475   478   478   480   484   484   476   476   476   485   494   487   490   484   482   478   476   476   475   470   467   464   463   466   466   472   460   463   470   475   475   474   473   469   461   456   461   466   462   464   472   472   472   474   472   465   465   465   468   468   468   471   481   475   474   469   470   471   467   467   467   472   474   477   477   478   478   483   486   488   494   494   491   489   490   492   494   496   501   503   500   493   490   488   491   502   513   512   509   504   492   494   503   512   511   511   512   510   512   515   520   523   521   514   518   519   526   529   521   527   524   521   518   518   514   511   512   523   529   531   534   531   531   535   536   539   538   544   551   555   556   559   560   555   550   544   544   545   542   545   548   556   551   553   556   552   553   547   547
437   444   437   437   439   435   434   434   445   447   451   452   462   460   455   456   448   453   463   473   469   474   474   472   462   451   450   453   458   467   475   478   482   476   466   461   458   456   451   452   454   452   450   457   463   460   457   453   460   468   467   471   468   468   471   474   475   475   476   489   488   485   500   513   507   510   508   501   496   489   491   499   504   501   500   497   501   509   494   502   492   483   484   486   483   488   492   491   485   485   486   482   475   470   476   479   481   483   481   481   478   471   476   474   476   481   484   474   472   475   482   486   488   487   484   481   477   477   477   474   472   472   469   467   475   477   467   466   458   464   468   471   473   472   465   465   462   463   465   464   466   471   473   472   472   474   474   471   465   466   469   468   470   465   473   474   471   473   474   470   467   469   476   477   476   476   475   480   480   482   482   487   489   487   487   489   492   490   492   496   501   503   502   497   493   496   501   510   510   507   498   494   496   508   512   515   521   519   514   511   512   515   517   520   518   518   524   528   530   518   513   510   512   516   517   519   517   516   521   528   525   526   528   531   530   536   534   534   544   562   564   559   560   558   551   547   545   542   546   550   549   550   550   550   550   554   556   552   556   555
432   443   447   440   439   431   436   439   447   444   455   455   455   464   458   457   450   454   462   469   473   468   468   477   467   457   448   450   453   457   461   473   473   469   469   463   456   454   454   449   452   454   453   462   465   464   467   462   469   477   473   470   463   462   462   462   462   464   465   475   483   493   499   502   500   501   504   500   495   491   495   505   512   509   506   500   502   494   499   501   500   495   491   492   488   487   490   490   490   488   488   484   482   480   483   481   484   485   482   478   476   477   472   483   479   476   479   478   476   479   481   481   481   475   478   479   479   478   476   478   470   468   468   468   475   477   474   467   466   464   468   470   471   471   473   472   465   463   464   464   467   468   465   461   464   468   471   467   463   465   468   465   464   465   466   470   477   478   480   473   472   473   475   473   472   473   474   470   474   485   486   489   499   493   491   491   492   490   489   488   494   502   505   507   505   505   513   516   509   508   505   498   503   506   508   512   517   521   518   512   511   513   514   516   518   526   531   530   524   524   512   508   514   517   517   521   520   522   527   529   534   536   531   529   529   536   530   538   542   560   558   559   557   554   552   551   551   544   548   551   555   558   554   554   558   559   556   561   564   564
439   450   450   450   443   437   437   443   443   448   453   461   461   465   451   462   464   457   470   469   468   469   473   473   475   460   448   451   450   450   460   469   471   470   463   458   456   456   458   453   452   456   459   461   462   461   467   472   477   481   477   466   459   459   457   461   463   466   467   464   464   472   490   494   493   481   485   491   490   494   499   507   508   514   511   497   494   490   490   499   506   513   510   497   495   492   492   496   501   503   494   485   488   486   484   483   484   483   482   479   476   476   475   478   479   484   481   482   482   479   479   479   474   469   471   478   480   479   480   474   468   466   466   467   471   476   474   469   465   467   466   470   471   468   473   470   463   463   463   466   467   464   460   456   459   464   468   468   466   465   466   465   466   467   466   470   478   484   488   487   482   475   470   470   471   475   479   476   473   482   486   501   496   500   497   492   489   491   492   492   496   498   500   509   515   522   527   527   521   518   514   509   510   507   506   509   511   515   519   517   516   518   517   517   521   530   536   535   526   522   516   512   521   526   527   526   525   529   532   534   530   539   531   523   531   535   532   536   544   549   555   562   547   551   550   545   545   548   552   555   556   560   557   556   554   557   557   566   566   560
449   449   455   459   456   443   450   451   456   452   455   461   458   455   456   459   462   461   467   471   465   465   469   471   471   461   450   453   450   458   463   470   473   474   466   463   463   468   466   460   454   458   465   466   466   466   474   482   487   482   476   470   464   462   459   462   461   464   462   458   462   463   463   480   483   469   471   477   486   491   498   503   506   511   507   499   487   493   493   499   500   513   518   514   507   506   510   513   510   504   499   492   493   493   488   483   486   481   479   476   476   477   474   477   480   478   477   478   477   480   471   467   466   463   468   464   468   472   469   470   473   467   465   467   472   477   477   472   473   473   472   471   471   470   472   467   465   461   461   465   463   460   457   453   457   466   465   467   463   464   468   466   470   475   477   479   481   488   492   490   484   472   466   468   478   487   491   481   474   481   488   494   494   496   493   486   489   493   499   503   505   501   509   515   521   526   525   526   527   526   524   521   522   518   514   507   515   515   519   511   516   517   519   521   525   533   536   533   523   516   516   517   530   536   535   537   538   539   534   536   541   537   530   524   535   536   535   540   543   543   545   544   541   545   549   548   550   550   553   559   563   561   565   558   555   553   556   559   560   559
443   454   458   463   451   450   451   452   455   459   463   458   462   457   458   461   463   464   470   472   465   463   467   470   464   457   466   463   463   461   465   475   477   479   474   468   473   468   463   471   462   469   474   477   474   481   478   481   487   484   483   477   468   464   460   463   465   469   465   458   458   459   459   461   463   462   458   465   472   479   490   496   502   502   504   500   493   495   496   498   507   515   519   522   517   523   521   525   518   506   501   495   494   491   488   488   489   487   488   481   473   471   468   472   476   476   471   471   471   470   467   460   459   465   461   458   457   458   460   472   476   473   472   472   472   477   477   476   478   476   475   470   466   464   464   465   462   457   460   463   465   468   462   455   457   467   469   462   459   462   461   468   474   475   478   478   480   486   489   491   486   478   475   475   483   489   494   488   484   485   491   493   493   497   494   496   495   498   506   506   507   508   511   529   525   526   525   521   521   527   528   526   523   521   514   514   514   520   509   518   514   514   520   525   527   533   540   534   528   519   523   529   542   547   547   542   540   537   534   537   536   538   537   530   534   536   534   537   538   538   539   541   538   541   548   554   552   548   550   555   559   559   559   554   550   548   550   549   554   563
