ncols 250
nrows 63
xllcorner 107.979126
yllcorner 165.803833
cellsize 25
NODATA_value -9999
503   494   489   481   480   474   470   467   462   461   455   446   445   454   462   459   469   476   482   489   496   500   501   498   488   483   483   482   481   487   486   487   487   485   484   486   487   477   468   455   444   434   424   416   407   395   382   373   365   359   354   352   347   339   331   323   314   305   305   307   309   320   330   332   328   327   303   286   278   270   262   254   254   242   229   217   211   203   188   179   175   169   161   151   143   140   137   132   129   122   115   104    93    88    87    88    87    84    83    81    72    64    56    54    54    48    43    39    42    38    38    38    37    39    40    40    39    40    38    38    34    35    35    32    28    27    27    29    28    27    30    31    30    30    28    26    26    27    29    27    27    25    21    19    19    20    21    17    18    19    20    19    16    15    21    17    20    20    22    22    20    19    19    19    19    18    14    12    16    19    20    21    23    23    23    19    17    16    14    14    21    20    23    24    20    20    23    27    25    21    17    16    16    17    22    16    16    17    20    21    23    18    12    13    15    17    19    18    16    14    16    14    10     8     8     9     9    13    16    19    21    19    14    17    17    17    21    13    13    12    14    12    12    12    10     8     8     9    12    11    13    11    10    10    13    12    12    12    10     8
505   501   497   491   488   485   479   471   464   460   458   454   456   466   471   475   483   487   494   498   503   510   508   505   488   479   476   473   471   480   478   479   484   482   485   493   494   490   471   460   448   439   427   415   413   393   384   375   364   356   350   346   342   341   330   324   317   309   308   307   310   325   335   339   334   328   297   284   274   264   256   246   242   233   221   212   209   198   184   179   174   165   155   146   139   137   134   129   124   116   112   102    93    86    88    86    82    79    76    70    62    55    50    50    46    46    43    41    42    38    38    38    38    42    41    39    37    33    32    34    31    32    37    34    33    30    31    29    28    29    28    30    29    28    27    27    25    25    28    26    25    23    21    24    20    22    15    18    16    17    19    18    16    15    18    20    20    21    18    17    14    15    17    17    16    15    15    15    14    17    20    19    18    16    13    16    15    16    16    20    21    22    21    25    26    24    26    29    23    19    17    16    17    17    20    16    13    15    19    22    22    16    13    12    14    13    16    16    14    12    13    14    12     9     9    14    11    17    19    22    22    20    17    18    19    20    21    21    18    12    11    10    12    11    11    11     9    14    10    11    11    10    12    17    16    15    14    11    12     9
514   504   502   495   491   493   484   471   465   459   458   457   460   466   474   482   496   501   503   505   508   522   520   508   495   482   477   471   469   468   471   474   475   478   483   490   492   484   472   461   449   441   429   414   402   391   383   373   362   356   350   344   339   335   322   319   316   313   311   317   323   333   344   342   338   324   301   283   270   257   248   244   236   230   221   215   212   207   196   186   177   163   152   144   138   134   131   125   120   115   114   110   104    96    94    90    84    78    71    59    55    53    51    53    47    43    43    41    43    40    40    40    42    40    37    32    31    30    32    34    32    29    37    36    37    32    31    29    28    31    27    26    26    24    24    25    24    25    26    24    24    23    24    26    25    17    14    13    14    15    20    17    16    17    16    16    19    19    18    19    19    19    18    18    18    16    14    17    15    17    18    18    16    15    18    19    22    17    17    23    25    24    22    27    28    25    23    20    22    17    19    19    20    20    22    22    17    15    19    21    17    14    13    13    13    13    14    16    14    14    14    15    14    12    13    12    11    13    14    18    19    19    20    20    20    23    22    20    17    12     8    10    11    12    11    12    11    11    11    14    13    13    13    18    21    18    13     8     9    12
517   510   505   498   494   491   484   475   470   464   463   464   463   473   485   495   505   509   515   519   528   529   523   514   503   493   485   476   473   478   470   464   469   470   467   474   479   474   467   459   449   442   429   417   402   393   384   370   362   355   351   343   333   321   313   311   313   319   325   332   336   342   345   348   335   317   294   279   267   256   248   241   229   221   215   214   209   204   197   189   175   161   149   147   142   136   130   124   117   111   107   108   102    98    98    89    82    73    63    56    56    56    51    51    44    49    49    45    42    41    45    47    45    38    34    30    27    29    30    33    32    32    34    36    37    34    34    33    29    29    29    28    28    26    23    22    23    26    28    23    23    26    27    25    26    15    14    12    14    14    18    18    18    17    16    14    17    18    19    19    22    21    19    22    19    19    14    21    18    17    14    14    15    14    16    19    19    21    21    25    26    25    27    27    26    26    23    19    15    19    24    23    24    25    24    26    19    16    17    17    15    12    12    12    12    12    12    12    12    11    12    13    15    13    14    12    11    12    15    18    19    19    22    23    21    21    19    16    14    12     9    10    12    12    11    17    11    13    16    16    14    13    14    17    16    14    12     8     8     9
523   517   511   507   501   494   486   482   476   477   475   475   477   488   496   502   507   512   519   530   542   538   531   522   511   501   498   490   483   479   471   472   470   467   464   457   459   458   454   450   443   438   428   415   402   392   382   371   363   357   353   338   325   314   309   310   318   329   335   339   344   347   347   342   323   301   290   278   269   260   251   241   228   218   211   212   211   207   199   189   174   160   151   147   139   134   128   121   109   105   103   101    97    95    84    84    79    71    62    58    55    55    51    47    45    43    43    40    40    40    44    50    46    38    34    32    31    31    32    35    34    39    38    32    33    33    31    28    26    27    28    26    22    24    25    24    25    28    29    27    24    24    24    28    26    19    14    13    13    14    18    18    17    15    14    15    20    20    20    20    21    19    20    21    20    19    17    24    18    16    14    15    16    16    19    18    23    24    22    23    27    28    22    25    26    26    21    18    15    15    24    24    24    26    24    24    18    17    16    15    12    12    14    13    11    10    11    11    12    12    11    10    11    13    14    13    12    13    15    18    19    20    21    22    21    17    17    16    14    13    10     9     9    11    17    13    15    15    16    15    14    14    16    16    17    14    11     9     9    10
524   520   516   516   510   499   490   486   489   490   490   489   493   499   504   511   518   523   537   549   558   557   543   526   517   514   512   506   503   485   483   475   473   466   460   460   451   443   440   435   431   428   423   412   400   387   381   371   366   358   348   335   321   309   310   314   330   340   343   344   344   345   337   325   305   297   291   280   275   267   256   244   232   216   208   208   205   199   194   186   174   160   158   152   146   138   128   117   112   101   100   100    98    94    87    82    76    69    62    53    51    50    48    47    44    43    42    39    38    40    45    48    43    37    33    34    33    34    35    37    41    39    39    31    29    27    27    24    25    26    24    22    23    27    26    27    22    25    27    25    24    26    25    25    26    22    20    14    13    17    22    22    24    19    20    23    26    25    21    22    18    19    17    18    18    21    21    22    17    17    14    15    17    18    17    18    21    24    23    23    27    26    25    23    24    24    21    19    21    21    22    23    24    23    22    21    18    15    15    16    14    18    20    18    14     9    11    11    14    11    11    10    11    15    14    10    11    12    14    15    18    19    19    21    17    16    17    16    16    14    12    11    15    12    12    17    18    21    21    21    18    16    13    13    15    13    11    10    13     9
533   525   525   528   524   518   510   503   501   501   502   503   501   504   512   527   535   546   557   569   570   562   551   543   537   529   521   515   512   501   494   486   484   473   466   459   450   440   433   425   420   416   410   401   387   380   376   367   359   347   335   324   313   311   319   330   341   347   348   345   342   343   322   309   297   288   284   280   275   268   255   241   226   214   206   206   202   192   185   177   170   161   155   148   140   131   124   115   112   101    97    95    95    91    89    86    78    69    60    51    49    49    48    50    47    46    41    36    35    38    41    41    37    33    33    34    34    35    36    37    38    37    37    32    30    28    28    27    24    24    23    21    22    26    28    26    22    22    24    22    22    22    20    21    26    23    23    19    18    21    21    21    20    20    22    26    30    31    25    22    18    18    18    20    21    27    29    21    17    15    15    16    19    21    19    20    21    21    24    25    25    22    24    26    23    20    21    21    19    21    24    24    24    23    20    18    14    15    13    14    15    19    18    16    14    13    12    13    14    15    13    12    10    11    11    14    13    13    13    14    18    18    19    19    17    17    19    21    18    19    14    11    10    10    13    15    19    24    26    26    18    14    20    21    16    11    10    10    11    11
542   540   541   545   533   529   520   515   512   515   520   517   512   518   533   542   554   559   572   581   579   570   557   549   541   534   533   534   525   516   509   508   492   485   477   469   466   457   438   427   418   412   404   393   384   375   366   356   344   332   321   313   315   321   327   334   339   343   340   324   321   321   311   300   290   278   268   264   262   259   246   236   223   213   207   203   194   187   178   169   163   155   148   146   146   135   120   107   101    98    95    93    94    91    93    89    83    71    58    50    50    50    50    51    47    43    38    36    37    36    37    39    34    33    34    32    31    33    34    33    34    35    36    33    31    29    31    27    25    25    24    24    24    25    25    23    22    22    23    20    19    21    23    21    25    23    23    21    20    22    21    22    20    21    21    24    29    31    25    27    17    16    20    25    25    34    28    22    19    20    22    24    15    22    19    25    27    26    26    25    25    27    29    26    22    20    19    22    20    20    28    30    26    21    21    17    16    14    14    14    14    15    18    17    16    15    14    15    16    21    17    13    11     9    10     8    10    11    12    14    16    17    16    17    18    23    19    16    16    13    20    13    14    15    15    16    20    24    26    28    20    20    21    19    15    14    12    11    12    10
554   553   543   547   540   526   522   525   526   532   537   539   538   540   545   552   561   569   582   592   587   580   565   552   550   557   554   547   540   532   522   518   510   505   492   492   484   471   458   443   426   417   400   386   379   371   355   344   331   318   313   310   316   325   331   337   340   334   325   316   302   303   298   290   272   247   242   245   249   245   235   226   224   220   209   198   190   182   171   165   157   149   142   138   142   133   116   106   100   100   101   101    99    97    92    90    81    65    59    54    52    50    52    52    42    39    39    41    40    37    35    36    36    37    37    30    30    30    32    31    33    38    35    35    31    32    31    28    26    27    27    28    29    27    26    24    22    20    20    18    19    19    21    24    20    21    22    22    21    18    16    17    20    19    19    22    26    27    25    20    22    22    23    24    28    31    30    25    25    21    20    17    17    19    19    26    30    31    30    28    30    29    28    25    22    19    22    20    20    22    29    32    28    24    23    18    17    16    16    18    14    13    13    15    14    15    17    17    19    20    17    14    13    10    11     9    13    10    13    15    17    14    15    20    17    18    23    13    12    19    16    14    14    14    12    15    21    22    23    24    22    22    21    18    13    12    12    12    10    10
559   556   549   546   540   528   528   533   541   546   550   551   559   564   571   567   575   580   590   601   595   589   581   580   577   570   571   564   553   545   536   527   521   514   500   495   489   479   472   456   437   428   397   383   375   365   346   334   317   310   308   311   317   326   336   340   334   319   308   300   293   295   289   272   247   238   233   235   233   227   221   217   220   216   209   198   186   176   165   160   151   145   142   138   129   122   117   110   104   105   107   106   100    96    92    88    75    66    58    51    42    46    46    42    38    35    33    34    33    37    35    35    36    35    33    32    33    32    34    34    34    36    33    33    36    32    31    29    30    32    34    30    28    26    25    23    22    23    24    23    21    18    20    20    20    22    22    21    22    18    17    19    26    22    22    21    25    22    19    21    22    20    23    25    27    29    31    29    26    23    19    17    17    19    21    29    35    36    34    33    33    27    24    21    19    19    20    21    24    26    28    29    27    24    19    18    20    19    18    19    17    17    15    13    12    16    20    20    21    18    17    16    12    11     9     8    11    11     9    13    14    15    15    17    11    14    13    13    11    12    13    14    17    18    15    16    20    18    19    20    20    20    20    17    15    14    15    13    11    14
561   553   549   540   536   533   534   543   554   558   562   564   563   569   572   577   584   591   600   606   602   595   593   591   588   584   579   572   561   551   541   532   527   519   509   501   493   483   467   459   440   429   402   389   384   361   344   328   314   312   309   311   315   321   329   327   319   310   301   291   287   289   276   251   239   230   225   222   218   214   210   207   208   207   202   192   183   175   167   158   150   141   137   138   133   127   124   115   103   108   108   107   106    92    86    78    68    61    54    49    41    44    44    37    35    32    29    29    29    32    31    35    35    33    31    32    33    32    32    33    32    34    30    31    32    31    30    28    32    33    33    28    26    25    24    24    23    23    27    26    24    24    23    21    23    23    22    21    20    17    18    18    19    21    22    23    21    21    18    18    19    20    20    23    27    26    28    28    26    25    19    19    20    22    25    31    33    34    34    33    29    23    24    21    19    24    20    21    24    29    30    28    28    20    16    18    19    19    20    21    19    16    18    15    16    16    23    23    21    17    17    13    10    14    14    13    10     9     8    10    13    13    13    11    12    18     9    10     9     9    11    13    16    15    13    17    16    13    18    19    21    21    20    16    13    13    15    15    19    15
562   557   548   540   537   539   544   554   565   570   572   577   576   579   578   584   597   605   608   606   602   602   596   595   602   594   583   573   565   558   547   538   528   520   513   502   490   479   465   457   437   413   395   384   377   355   337   324   317   315   317   319   317   325   325   318   306   303   295   287   282   275   262   246   236   228   219   214   211   208   200   194   196   198   195   188   182   173   164   152   144   136   135   139   139   134   131   117   114   112   105   109   105    96    87    74    64    55    50    47    46    45    39    36    37    38    39    35    31    31    31    31    32    31    32    33    32    30    29    29    29    32    33    26    28    31    30    31    33    33    32    27    25    26    25    26    24    24    24    22    22    22    21    21    27    25    24    22    20    19    21    20    20    21    22    23    25    22    19    19    19    17    18    20    24    23    25    25    26    26    22    17    20    25    27    28    30    31    33    32    27    24    22    22    26    23    21    20    21    28    29    25    26    20    20    21    20    21    22    23    20    16    13    13    15    16    19    21    17    16    14    13    11    11    10    10    12     7     7     7    11    12    13    13    11    10     7     9    11     7     8    10    15    14    14    14    15    12    13    14    18    14    18    14    19    17    18    17    16    18
564   558   552   547   549   545   546   557   570   577   582   588   589   586   584   592   604   610   611   601   592   589   592   600   595   595   582   573   565   564   544   529   520   511   503   494   480   463   461   438   430   398   384   375   365   337   330   324   323   325   324   320   322   313   308   299   290   292   289   285   279   274   263   239   224   221   215   211   208   201   193   188   185   187   183   180   178   171   160   145   133   129   130   136   133   131   129   124   117   110   106   103    95    90    84    74    64    59    53    48    48    45    45    45    48    49    42    36    29    27    26    29    31    32    30    30    29    27    26    25    28    32    28    26    28    31    32    32    31    31    30    28    27    30    31    27    25    23    22    21    22    21    24    24    23    27    29    22    22    21    21    19    20    22    26    22    21    19    18    19    23    17    16    19    21    19    21    21    22    23    18    19    22    23    27    28    29    29    31    27    24    18    21    26    27    27    24    20    19    22    23    20    18    16    20    23    21    22    24    24    23    15    16    15    14    18    20    20    21    18    15    12    13    12    14    15    13    12    10    10    12    12    12    10    10     8     8     9     9     8     8     9    11    12    14    14    15    14    14    14    16    16    18    14    13    13    15    24    22    23
578   565   560   557   547   547   548   561   573   581   588   587   585   585   588   595   600   601   595   586   579   584   585   584   590   586   578   570   561   557   542   524   510   500   479   472   464   446   439   436   404   384   375   373   345   333   329   330   331   331   331   328   317   316   301   291   285   281   270   269   276   272   256   236   225   220   216   204   201   197   194   188   183   178   175   178   168   162   151   141   132   125   124   128   128   126   127   122   115   108    99    95    94    92    85    77    67    62    59    48    49    51    52    57    58    54    45    35    30    28    30    32    34    35    33    30    32    29    26    26    28    30    34    29    30    33    36    31    30    31    30    30    30    32    31    29    28    27    24    22    23    25    28    27    23    23    24    27    26    25    26    23    22    23    26    23    19    17    15    17    20    20    17    18    19    17    17    18    19    20    20    21    24    21    23    25    28    28    26    21    19    22    21    24    28    30    25    21    21    21    21    19    16    14    18    22    25    30    26    30    21    17    16    17    19    21    20    20    19    18    17    18    16    18    15    15    14    14    11    12    11    12    12     9    10    16    12    11    10    11     9     9    12    10    17    17    13    14    13    17    18    14    19    15    14    15    19    30    28    25
575   572   559   560   554   549   559   563   569   574   574   569   563   569   575   577   569   566   569   572   569   583   579   573   575   576   570   566   556   550   541   521   497   480   468   461   452   436   434   419   391   378   367   352   338   329   328   331   337   338   336   330   323   312   303   292   282   273   268   271   266   260   244   236   223   224   215   203   199   195   189   184   177   173   168   162   159   151   145   138   128   119   117   119   121   124   124   116   110   103    96    94    93    91    84    76    70    61    57    50    52    55    57    61    57    53    44    37    33    29    29    31    33    32    31    32    35    32    29    30    33    33    34    30    32    31    34    34    31    29    28    29    30    31    29    30    30    27    23    22    25    27    29    26    26    28    29    31    31    29    28    23    26    25    23    20    17    18    20    20    20    20    18    20    20    18    17    17    18    18    20    23    25    23    22    24    28    26    24    19    16    19    22    23    26    26    25    23    23    23    23    19    15    12    14    21    27    26    26    33    25    18    18    19    18    17    19    15    18    19    21    25    27    26    25    21    17    12    10    11    12    13    14    11    10    13    12    15    16    15    11    11     9     8    13    16    13    11    14    16    18    18    17    14    13    16    25    24    19    23
575   575   566   562   567   572   570   574   571   564   558   556   550   545   543   542   547   547   550   554   553   556   556   557   563   565   563   559   550   541   537   502   487   476   462   446   445   438   424   395   377   369   360   345   335   332   340   345   341   344   342   336   324   312   302   292   282   275   267   266   250   249   231   226   217   221   207   205   196   191   184   180   171   164   159   149   146   140   135   129   121   114   113   116   119   122   121   118   108    99    93    92    94    84    81    72    67    55    50    49    53    58    60    59    56    48    40    34    34    31    31    32    34    34    34    35    35    38    39    36    39    38    29    30    31    33    33    35    33    28    27    27    27    29    27    26    29    27    25    23    22    24    29    30    30    29    30    31    30    28    27    29    28    27    24    20    21    20    20    22    25    23    20    23    22    22    20    19    18    17    18    22    22    20    20    22    24    24    23    20    20    18    22    24    26    24    24    23    22    22    19    21    21    15    17    23    26    27    32    27    22    19    17    17    17    15    19    20    18    17    22    25    27    29    28    20    17    12    11    12    12    13    13     9    12    15    14    15    17    19    15    10     9     9    11    16    11    12    11    13    14    16    19    16    19    19    23    18    16    17
583   584   577   574   587   594   594   594   580   569   559   553   541   536   521   522   526   530   533   533   537   552   552   549   551   552   549   543   538   536   509   492   479   464   445   433   424   412   396   391   379   362   352   343   338   339   351   352   346   344   341   333   326   314   299   290   288   275   269   257   245   235   228   219   208   204   199   198   195   184   178   174   162   163   153   137   133   131   126   120   114   111   109   115   117   121   117   111   100    93    89    86    82    74    64    59    54    49    47    50    55    60    64    56    51    48    41    37    37    35    33    34    37    35    34    35    34    37    38    37    41    35    36    33    35    34    32    31    26    28    27    24    22    24    22    25    29    29    25    21    21    23    29    30    29    27    28    28    27    27    26    25    23    23    24    23    19    16    17    24    23    20    20    20    19    22    21    18    18    18    17    19    20    19    21    23    22    22    22    23    19    17    22    27    25    24    23    20    19    19    20    23    26    19    17    21    26    24    28    23    19    19    19    20    18    19    20    20    19    18    22    25    27    22    26    20    15    11    13    13    13    13    11    11    13    14    16    13    14    16    12    10    13    10     9    11    10     8    11    12    12    15    21    27    25    18    14    16    17    18
592   597   604   602   618   611   612   607   591   573   562   556   545   527   518   517   515   521   526   529   533   542   551   544   545   545   540   531   520   511   495   480   476   456   431   419   408   400   391   386   365   354   343   336   336   355   358   355   350   351   339   330   319   306   296   284   277   270   268   255   244   235   225   214   203   199   194   190   187   185   175   162   159   149   135   133   127   121   113   110   109   109   108   113   119   119   116   104    93    88    82    76    70    64    60    54    51    47    47    47    52    58    61    54    48    47    46    43    40    39    36    36    37    38    38    36    34    34    35    35    34    37    34    34    34    31    29    29    31    32    29    25    24    23    22    27    29    28    21    18    20    22    25    26    25    23    24    25    26    26    27    25    25    25    25    23    20    16    17    24    25    21    18    26    23    21    20    19    18    20    21    20    22    21    23    23    23    22    22    22    19    19    23    25    26    25    23    21    18    16    20    21    21    18    20    22    28    24    27    22    20    21    24    23    22    16    17    20    24    21    24    27    21    23    26    22    18    12    12    12    14    13    16    16    16    17    14    11    11    13    10    10    10     9     7    10     9     8    12    14    15    18    22    24    18    16    13    14    16    17
606   620   630   640   636   633   621   613   601   587   574   564   550   533   522   517   513   511   515   520   526   532   541   545   548   545   540   515   501   491   485   474   462   428   416   407   394   390   374   365   354   344   337   332   332   356   355   352   350   345   330   322   310   295   281   274   269   265   257   253   247   243   224   217   205   202   190   186   181   176   171   164   151   140   135   127   123   117   110   103   100   100   107   114   117   113   109   101    88    82    75    66    60    58    53    50    49    48    48    47    50    50    52    51    48    50    50    46    44    45    42    41    41    38    38    39    37    33    31    32    33    36    35    32    31    30    31    30    32    31    25    22    24    26    28    30    30    25    22    21    21    23    25    23    23    23    26    26    26    25    23    23    27    28    26    23    22    18    21    23    24    20    19    23    24    24    21    21    19    19    21    24    23    24    25    25    23    23    22    21    18    19    21    21    25    25    22    20    20    19    21    19    20    22    20    18    27    28    28    24    25    27    31    25    23    18    15    18    19    20    21    30    23    24    26    24    24    18    14    13    14    16    19    20    19    19    18    16    14    13    13    12    10    13    10     9    10    11    13    14    16    17    21    21    18    17    16    16    17    14
630   634   636   642   647   643   630   615   606   592   581   569   560   546   532   522   518   512   507   511   513   518   524   536   546   538   534   504   492   481   480   468   438   419   406   400   390   370   358   354   349   342   336   332   335   345   350   350   344   333   322   311   298   275   267   265   261   253   249   244   244   239   229   217   208   198   185   178   173   170   167   159   149   138   132   125   117   111   106    95    90    91    99   110   114   109   100    91    81    75    69    60    54    50    48    46    47    48    48    48    46    45    46    45    44    44    45    45    47    45    44    43    40    41    41    40    38    34    30    32    33    34    34    32    30    31    30    29    28    29    27    23    23    25    26    25    24    21    21    24    25    23    22    22    21    25    28    27    24    24    21    21    24    24    23    23    22    21    19    21    23    19    20    23    21    26    24    25    23    19    20    22    22    23    25    24    22    21    24    21    21    23    22    22    25    25    19    17    19    21    22    21    21    20    17    19    15    17    24    26    32    31    34    29    18    14    14    15    18    19    23    28    26    24    24    24    21    17    13    13    15    17    20    22    25    24    25    21    16    13    10     6    11    14    16    15    14    13    13    13    13    13    15    15    13    13    16    13    15    12
647   647   645   649   653   650   636   621   609   593   583   571   561   550   536   526   520   512   506   506   504   507   515   524   536   539   510   497   484   483   471   448   432   412   400   390   378   364   356   353   344   338   336   335   344   348   355   346   334   322   309   293   271   256   254   258   256   246   237   234   235   232   226   214   206   196   184   175   168   166   160   155   146   135   127   122   113   110   103    92    87    85    93   101   103    98    90    79    67    63    59    60    57    49    46    45    44    43    44    45    47    47    45    42    41    44    45    46    47    47    46    41    42    41    43    40    39    39    37    36    35    35    34    32    32    31    31    29    26    25    23    22    22    23    24    30    24    22    20    25    23    23    20    22    21    24    26    25    24    22    21    21    22    22    22    21    22    25    22    21    22    22    23    22    24    29    26    24    24    22    21    20    22    24    25    23    19    25    25    23    27    25    23    24    25    22    16    16    18    18    22    26    24    23    21    20    19    18    19    24    35    35    37    29    19    18    14    16    15    17    21    27    24    20    18    18    16    15    12    13    14    16    18    22    25    25    24    19    16    15    12    10     9    15    16    22    14    12    13    14    12    13    14    13    12    14    17    16    14    10
667   666   663   665   658   650   638   624   607   594   580   570   563   554   547   537   527   520   505   499   497   497   503   505   515   512   500   483   481   472   449   435   423   408   394   384   375   365   359   358   352   349   350   352   348   354   346   341   334   323   297   281   260   248   254   248   247   240   228   222   219   226   217   210   201   189   182   173   166   161   152   147   143   132   121   115   111   106    96    90    86    85    90    98    95    86    77    67    60    57    57    52    49    45    43    47    45    46    41    41    43    46    45    41    40    42    42    46    48    48    44    42    42    42    41    39    40    41    37    34    33    31    30    29    29    26    25    24    25    24    22    20    21    23    24    24    23    22    21    21    22    24    23    28    24    22    23    21    21    21    20    21    23    22    22    21    25    30    24    21    21    23    25    20    21    28    27    23    23    25    26    26    27    25    22    20    21    26    25    23    24    23    22    22    23    20    16    16    18    17    19    23    25    22    24    19    20    19    21    24    28    33    32    25    21    17    15    15    17    20    21    19    20    20    16    16    15    16    14    12    11    13    14    19    24    24    20    15    15    15    13    10    11    13    12    15    11    12    14    14    15    13    14    12    14    14    15    13    12     7
680   682   684   672   664   651   641   626   610   600   582   569   565   559   549   539   534   524   511   498   496   495   492   497   498   489   483   479   470   455   439   423   413   403   394   386   377   369   363   357   360   359   356   356   350   351   348   333   329   310   297   274   262   251   253   247   237   232   222   214   209   208   209   206   195   185   177   172   165   152   145   140   134   126   115   108   102    98    95    93    90    85    86    89    89    76    67    60    57    57    56    54    50    46    45    48    46    42    41    38    41    44    44    41    42    42    43    44    46    44    42    40    37    37    37    37    38    40    39    35    33    31    30    30    30    29    26    24    24    24    22    22    24    24    23    22    22    20    20    23    25    26    25    29    28    25    23    21    19    19    20    21    21    21    21    22    26    24    25    21    20    22    24    22    23    27    26    22    20    23    29    26    25    23    21    20    22    27    23    23    23    22    21    21    21    18    17    17    18    19    21    23    25    26    26    27    17    20    20    22    24    23    27    21    21    22    17    17    17    18    23    17    15    13    13    12    15    17    19    14    12    12    16    20    19    17    16    13    13    16    17    13    14    12    11    12    11    13    14    15    18    15    13     6     9    18    13    12    13    10
679   687   687   683   672   657   640   626   612   603   586   576   569   558   555   545   540   533   521   513   509   500   488   490   491   483   464   457   452   441   423   414   412   408   399   389   379   371   368   366   364   361   356   351   347   338   333   327   318   312   303   280   258   261   250   236   235   223   213   206   202   204   205   200   190   183   176   171   164   148   136   133   126   121   111   103    94    90    91    88    82    78    78    83    79    65    60    58    56    55    53    51    47    47    49    49    46    44    46    41    41    44    44    42    41    42    41    43    44    43    42    35    33    37    37    39    39    41    39    32    31    31    30    29    28    26    24    23    26    25    24    26    26    26    26    25    23    23    25    24    24    22    25    27    28    23    20    21    21    22    22    24    25    22    19    18    22    23    22    20    18    18    19    20    23    26    26    25    24    23    27    28    25    22    19    19    20    25    23    22    20    26    22    21    19    17    20    20    23    23    23    22    24    26    26    27    18    20    20    22    30    28    27    18    16    17    21    17    18    22    18    14    14    13    13    15    14    12    13    12    16    15    20    18    17    13    14    14    13    15    14    10     9     9    12     8    11    12    14    15    15    15    11    11     7    14    13    10     9    11
697   691   688   685   674   662   649   631   618   608   592   576   569   567   563   558   552   544   535   529   519   507   493   488   484   471   456   447   444   433   421   418   414   410   404   396   385   377   375   373   371   367   359   351   342   332   323   318   313   307   299   274   256   263   252   233   225   218   211   203   197   206   196   190   184   179   177   169   158   154   131   130   123   113   104    96    87    82    81    76    70    67    67    68    63    59    56    54    55    53    51    51    50    52    54    53    51    51    51    48    44    44    46    43    39    38    38    42    42    40    40    35    32    34    38    39    37    37    34    31    31    29    29    28    26    23    24    27    26    25    23    25    27    27    25    24    26    25    26    24    20    21    25    23    22    25    23    25    25    25    23    24    25    23    21    24    24    26    19    18    19    19    19    21    26    31    28    25    26    28    27    27    25    24    24    22    20    24    24    18    17    19    24    21    19    16    18    20    23    24    20    21    22    24    26    26    26    24    24    27    28    24    20    17    16    19    17    19    24    26    18    16    18    16    13    13    15    18    15    16    16    23    17    16    15    12    15    15    14    16    15    15    16    13    10    13    17    13    11    13    15    14    12     9    11    13    13    11    13    16
702   696   692   689   679   665   653   636   616   603   593   584   576   573   571   570   567   558   547   534   524   514   497   482   476   471   454   446   445   435   426   420   412   411   401   392   387   383   381   375   374   368   356   345   330   321   317   316   314   311   302   279   272   263   252   232   219   211   207   203   200   193   189   178   176   167   162   156   149   140   128   128   118   109    98    93    84    79    74    73    68    63    59    55    55    55    53    51    51    50    51    53    57    57    57    55    54    52    51    47    43    44    45    43    40    39    39    39    40    35    36    39    34    36    37    37    35    32    31    29    29    28    25    24    24    24    23    24    26    28    25    24    23    25    24    25    25    26    26    25    19    16    22    21    21    21    25    25    26    25    24    24    22    20    21    19    21    22    17    15    18    21    21    27    32    32    29    28    30    30    27    24    23    23    22    22    21    24    19    17    14    14    15    14    16    16    15    19    20    20    18    19    22    24    24    27    27    24    23    24    22    23    23    18    18    21    21    22    24    29    24    20    19    19    15    14    15    18    21    16    15    15    16    14    14    12    12    11    11    11    10    13    13    11    11    10     9    11    10    10    18    16    12     9    11    11    11    12    13    13
702   694   689   679   668   657   648   633   618   608   600   588   586   578   578   577   574   566   554   541   527   515   500   485   475   473   463   455   448   437   429   422   413   408   395   390   388   390   387   380   372   359   344   330   320   311   311   311   310   307   295   276   271   262   252   223   213   207   204   205   199   190   181   176   171   158   151   145   139   133   124   115   109   100    95    92    87    82    78    75    71    68    64    60    57    60    58    52    50    53    55    59    62    58    59    58    52    48    51    51    47    41    44    43    41    40    41    40    39    35    36    40    34    32    32    32    29    27    28    27    28    26    25    25    23    24    24    26    26    27    28    28    25    23    21    21    23    24    25    22    22    21    24    21    22    25    25    31    30    29    27    22    19    21    19    19    20    23    17    13    16    21    24    28    31    31    28    27    27    26    24    19    19    19    21    22    22    21    20    18    16    15    15    15    16    13    19    16    16    21    21    22    25    28    27    26    23    19    18    19    17    20    21    20    16    17    21    26    25    24    23    22    20    17    18    14    17    16    19    21    20    15    16    14    14    11    11    10    11    10    10    12    18    12    10     9     9    10    10    11    11    19    14    10    10    10    10    11    15    14
697   683   672   658   654   651   632   625   619   611   606   600   595   590   584   581   578   568   552   538   525   513   500   487   477   473   464   456   449   444   436   424   414   402   390   384   382   378   371   368   356   342   333   324   315   308   310   312   306   296   288   275   268   260   243   220   216   212   209   206   199   188   181   171   172   152   144   138   131   122   115   109   102    94    93    93    91    86    83    79    75    74    71    68    65    66    62    57    57    59    61    62    63    67    62    58    52    45    45    45    47    47    47    42    43    43    43    40    33    36    38    35    35    30    29    28    28    27    25    27    24    24    25    26    27    26    25    25    27    26    30    30    28    24    20    22    24    24    21    20    23    25    22    22    27    28    28    28    30    30    26    23    18    21    20    19    19    22    15    18    17    20    24    29    35    28    27    28    27    24    21    20    19    19    23    24    23    21    20    17    16    15    16    20    17    15    14    12    14    17    18    23    27    26    26    23    21    20    15    16    15    17    18    19    18    18    22    23    23    22    19    19    18    16    15    17    17    15    16    16    18    19    15    14    14    13     9    10    13     9    10     9    15     9     9     9     9    10    12    10    10    12    11     9     9     9     6     9    15    13
680   670   654   641   636   631   618   613   615   613   604   601   598   588   586   579   570   555   543   532   522   515   500   489   477   474   462   455   450   441   428   417   402   392   378   377   376   369   365   359   346   336   328   319   309   308   307   305   295   286   278   269   262   252   246   234   215   210   205   207   200   185   177   174   167   149   141   131   125   116   113   107   101    91    92    97   100    95    90    85    80    79    73    71    69    66    64    61    61    62    65    67    70    72    67    55    48    42    42    46    49    49    48    43    44    45    43    41    39    38    38    36    40    36    31    28    28    27    25    27    29    28    26    31    30    27    24    23    27    29    31    29    24    24    25    26    27    26    24    24    24    23    20    27    33    30    28    27    23    22    17    16    16    21    23    21    17    19    16    18    21    24    24    30    34    29    27    26    23    18    19    20    21    22    26    26    23    19    16    16    17    15    16    15    15    15    14    13    12    15    17    22    27    25    24    23    20    19    11    15    16    18    21    19    20    19    24    23    24    20    19    20    15    13    15    19    18    19    18    15    20    20    17    14    13    14    12    14    15    14    10     9    10     9     8    11    11    13    12     8     9    10     9     8     9     9     7     8    12    14
673   659   640   630   624   607   597   595   600   600   601   596   587   584   575   565   559   551   541   530   515   509   494   481   476   466   464   454   438   428   412   405   397   389   384   373   369   362   356   349   341   332   325   319   316   312   306   297   284   281   271   268   264   257   243   238   222   211   203   199   186   180   176   168   160   152   142   136   129   119   118   111   105    97    97   100   100    92    91    91    81    74    73    63    64    65    65    61    58    65    72    75    74    76    61    51    45    41    41    43    44    46    45    43    46    43    45    43    42    40    40    39    36    35    29    28    28    27    25    27    29    29    28    27    24    26    26    27    29    32    30    26    25    28    28    27    26    29    30    31    29    28    26    32    33    29    26    26    21    19    17    17    17    19    19    18    17    20    22    25    26    28    27    32    35    32    28    25    22    20    21    22    22    23    28    27    23    20    19    18    16    17    17    16    14    16    18    17    14    16    19    23    25    23    23    26    20    15    14    14    18    19    17    17    18    24    29    23    22    20    21    19    19    15    15    16    15    16    17    19    20    19    16    14    20    23    19    15    15    14    16    10     9     9    10     9    11    14     9     9    10    10    10    14    12    11     9    12    12    12
655   642   630   621   614   600   585   583   588   588   582   575   573   570   562   555   545   536   527   516   507   493   477   470   465   461   449   443   430   412   409   403   397   388   373   368   359   360   347   343   338   329   323   321   314   306   297   282   271   271   266   258   251   242   242   225   215   207   198   183   176   172   168   162   158   150   145   137   134   126   122   116   109   100    98    95    88    90    84    79    73    69    64    61    60    60    58    55    58    65    72    78    74    63    53    50    44    41    42    43    46    50    48    46    47    42    44    43    40    36    37    38    37    32    28    29    31    27    24    25    26    24    24    24    25    27    28    27    29    32    30    30    29    29    28    28    25    28    30    31    31    30    28    32    34    29    26    24    24    19    17    17    18    17    18    16    18    21    30    31    34    33    37    41    36    33    30    26    22    20    22    22    21    24    24    23    22    25    20    18    15    15    16    14    15    14    16    15    14    17    18    21    20    21    22    25    21    15    12    14    20    20    16    13    17    22    25    23    21    19    21    17    19    19    16    14    15    17    17    19    19    18    16    17    20    23    24    17    16    14    15    10     8     9     9     7     9    10     9    10    10    10    10    11    17    13    13    13    18    15
646   632   621   610   601   590   579   573   572   571   564   559   558   555   550   543   534   528   518   508   501   484   469   462   458   446   440   419   412   408   406   404   396   383   370   362   352   342   340   341   333   324   318   308   305   291   282   271   260   262   254   247   235   226   218   218   205   196   184   173   166   162   158   152   148   140   140   138   132   125   123   118   106    99    95    89    87    79    74    70    67    65    63    61    61    60    55    57    58    65    69    75    70    57    50    48    44    40    42    43    41    43    44    43    47    43    41    39    35    34    33    30    30    30    27    27    28    25    22    22    24    21    20    21    25    30    31    30    30    30    30    28    28    30    29    28    25    25    28    31    30    28    28    34    35    31    24    23    21    17    19    16    16    15    19    22    21    25    33    35    36    33    32    33    38    33    26    24    21    19    20    21    22    23    21    21    23    24    22    18    16    15    13    14    14    14    14    14    14    16    15    15    15    16    17    19    20    18    15    14    18    19    17    19    25    24    23    21    20    19    18    18    19    20    18    17    15    18    18    15    19    13    12    14    19    23    23    18    17    14    10    13    12    13    11     9     7     8     8     9     9    10     9    11    16    12    14    13    12     8
626   623   608   595   593   586   579   566   559   559   555   554   554   549   541   528   520   514   508   498   482   466   459   459   441   427   416   407   402   402   403   403   391   379   369   361   351   344   334   329   320   312   304   293   285   281   271   262   256   254   246   237   227   219   210   201   203   191   180   171   163   154   150   141   139   136   138   133   130   122   123   110    98    93    87    84    75    73    72    70    71    69    69    67    65    61    58    59    64    69    73    72    66    56    51    49    45    44    46    43    42    42    39    43    47    43    40    38    35    34    34    31    32    36    29    27    27    27    22    22    23    24    22    20    26    30    32    32    31    28    27    26    26    26    27    26    26    28    26    27    28    25    27    35    32    27    24    23    21    19    19    16    16    16    20    23    22    27    33    27    34    30    30    31    33    30    25    22    20    20    20    22    22    25    23    24    26    25    21    17    16    16    14    15    18    18    16    14    12    11    12    15    16    15    14    19    18    15    13    11    16    16    21    26    26    24    24    22    22    19    16    19    17    18    19    19    18    19    18    16    12    13    13    15    18    21    20    16    12    12    12    12    17    12    11     9     7     8    10    10     7     8     9    11    11     9    11    13    12     9
618   604   603   596   595   585   575   564   553   550   548   549   541   536   529   518   512   507   500   486   470   450   444   435   422   412   400   390   392   399   400   397   383   375   367   361   349   335   331   317   310   301   290   281   275   269   262   255   247   247   237   231   234   217   205   198   198   186   174   165   157   151   145   139   136   130   129   129   125   115   118   105    98    95    89    76    70    68    66    66    68    73    72    74    73    69    67    66    69    71    69    66    59    51    47    48    46    47    49    48    44    41    40    45    48    41    38    36    34    37    34    31    33    34    29    27    28    25    23    23    23    23    21    22    25    28    29    27    29    30    29    27    27    28    26    25    28    30    29    28    28    26    27    31    28    24    25    25    20    19    19    17    18    18    23    27    27    28    31    33    27    29    29    28    29    30    24    23    23    23    24    24    24    27    25    25    22    21    18    18    19    16    15    19    20    20    17    14    12    12    14    14    14    16    16    18    19    12    13    12    15    19    22    25    26    22    19    19    21    19    19    20    23    19    22    23    20    18    16    16    14    14    14    13    18    17    20    13    12    10    13    13    13    13    12    10    10     9    11    11    10    11    11     8     7     7     9    10    12     8
613   602   598   598   592   581   571   560   552   549   548   543   534   528   520   507   496   488   481   473   453   431   421   409   404   391   384   378   380   387   385   384   379   371   365   359   344   331   321   310   304   299   285   283   268   262   259   251   242   243   233   229   224   215   205   198   202   180   168   162   156   150   145   139   133   130   125   121   120   117   111   106   105    98    89    79    72    67    64    68    72    78    79    76    77    76    71    64    66    61    63    60    56    52    50    48    50    48    48    48    44    39    38    41    42    37    40    39    35    35    36    35    36    37    32    28    30    26    24    23    24    24    23    22    22    23    25    25    27    27    27    26    28    28    26    26    28    31    32    32    29    24    21    22    22    23    23    22    19    19    18    19    21    19    21    26    25    26    27    29    29    30    30    29    25    23    25    22    23    22    25    28    28    27    24    23    21    19    20    19    20    18    19    18    19    20    17    14    12    14    13    13    12    14    15    15    20    13    13    14    18    20    23    25    24    25    20    20    21    20    20    22    19    17    24    21    20    19    16    15    14    12    15    15    15    17    20    11    11    11    14    13    10    11    12    13    12    13    13    12    11    11    10     8     6     6    12    10     9    11
617   607   601   601   587   577   573   565   555   552   544   531   525   521   505   490   477   467   460   451   432   411   404   394   384   373   368   366   369   373   377   375   372   370   365   356   340   335   327   310   304   296   288   286   276   262   256   247   241   242   237   232   224   215   208   200   188   178   169   161   155   150   144   137   133   127   120   117   118   118   113   110   113   105    94    82    72    69    68    69    70    76    77    75    78    75    66    58    58    62    62    58    54    54    52    49    47    44    46    47    45    43    41    40    38    34    35    37    35    33    34    38    44    38    34    32    28    26    25    25    26    24    20    19    20    19    20    20    22    27    27    27    28    27    25    26    27    28    28    29    29    26    24    21    20    20    22    21    20    20    18    22    25    25    26    25    26    27    26    26    28    33    31    27    23    19    21    24    21    22    26    29    31    28    21    20    19    18    18    20    21    19    18    17    17    18    18    16    14    12    13    14    12    12    12    13    12    13    12    16    18    19    22    25    26    26    23    22    19    18    18    22    14    23    20    19    19    23    16    17    18    12    12    14    14    15    16    11    11    11    10     9    11    14    13    13    17    15    16    14    11     9     8     8     6     7     7     7    10    12
619   611   611   600   588   582   572   569   558   547   536   526   515   497   482   471   461   454   444   432   416   406   392   380   368   365   366   363   361   368   371   372   374   370   362   353   340   332   324   311   306   296   286   276   277   265   257   248   241   241   241   239   226   217   210   195   185   175   166   159   148   144   139   134   130   124   122   125   128   122   116   114   112   105    86    78    74    73    71    68    70    73    76    77    76    70    60    55    54    55    58    56    53    53    52    49    44    43    44    44    43    43    39    38    38    31    33    37    36    34    33    34    43    40    36    33    28    26    28    32    31    27    21    19    17    18    16    17    19    22    26    27    27    25    24    24    25    24    24    24    24    23    21    20    19    20    22    20    20    20    21    26    27    28    27    30    29    33    28    25    28    33    32    26    21    19    18    20    18    18    22    27    31    28    22    19    19    19    19    21    22    18    18    18    20    20    17    16    17    16    16    18    16    15    15    12    17    14    13    14    17    18    20    22    23    26    24    23    21    13    14    15    21    20    13    15    15    23    17    16    16    11    11    11    10    11    13    19    13    12    11    13    13    14    14    14    12    12    13     9     9    10     8    14     9     9     9     8     8    10
621   617   613   606   589   579   572   559   544   530   522   512   496   478   464   457   448   436   427   421   402   387   376   367   361   353   352   356   355   361   366   365   367   358   359   341   329   322   315   307   300   290   284   275   271   263   254   246   238   234   232   225   215   205   198   190   184   174   163   155   146   143   138   135   131   129   131   134   133   127   117   113   100    93    76    74    79    78    75    71    72    72    69    69    68    65    60    56    54    57    58    56    53    51    48    45    43    43    42    40    40    39    37    38    37    32    35    37    39    36    35    35    41    38    36    33    29    26    28    31    33    32    23    19    15    15    16    16    17    19    21    23    23    24    24    24    22    21    21    23    24    25    24    18    18    20    22    21    20    19    20    24    25    26    27    33    32    30    28    27    28    28    27    23    20    22    19    20    23    20    25    29    32    27    21    18    18    17    17    21    24    23    23    24    21    19    18    19    18    18    20    21    22    19    15    16    22    18    13    11    14    14    16    17    19    17    19    24    19    17    17    14    16    17    17    16    14    15    18    16    15    12    11     8     9    10    11    13    13    14    16    12    13    12    15    14    11    13    14    12    12    13     9    13    13    12     8     9     7    14
628   624   623   607   589   572   561   546   535   522   514   503   488   471   457   444   433   424   416   402   386   372   365   359   355   350   346   346   352   353   350   348   340   338   344   327   316   305   296   289   287   284   276   267   263   255   249   231   229   224   219   210   204   201   195   188   180   171   171   155   152   146   141   136   136   139   136   135   133   129   117   109    99    79    77    82    83    79    82    73    69    65    64    60    57    56    58    57    56    55    56    57    55    53    50    47    46    42    39    38    36    34    34    34    36    34    34    31    33    34    34    35    36    34    37    33    29    27    28    31    31    31    24    18    13    16    17    18    17    17    20    22    23    22    24    25    26    25    25    25    26    27    26    18    18    19    19    20    21    18    20    23    25    29    27    31    32    31    29    26    27    25    25    23    19    19    19    20    22    26    27    28    28    28    24    19    18    19    19    21    25    25    26    25    25    24    22    21    20    21    26    26    25    23    25    24    23    18    12    11    12    14    17    16    17    16    15    16    14    12    12    13    14    13    15    14    13    13    12    10    11    13    11     9    10     9     8     9    10    11    14    14    17    13    13    14    14     8     9     9    13    16    14    16    15    14    11    11    10    14
634   625   619   606   590   572   562   548   530   514   506   496   484   467   443   426   417   410   400   384   373   360   353   350   344   340   339   341   341   336   335   334   332   334   331   308   300   289   287   288   285   273   265   258   254   247   236   224   222   219   204   200   196   193   188   184   177   170   170   149   141   138   135   136   142   145   143   141   135   124   113   104    89    78    80    81    82    76    71    69    68    66    64    58    51    52    52    53    54    55    55    56    56    55    50    46    45    42    37    34    35    36    34    32    37    32    31    28    27    31    34    34    34    33    35    38    33    28    25    27    28    29    25    20    18    16    19    19    19    17    19    22    22    23    26    29    31    30    28    29    30    28    25    23    22    19    18    17    18    18    20    23    27    30    30    30    29    29    30    29    27    26    26    24    21    20    20    20    23    25    31    24    24    25    20    17    14    13    15    19    21    24    29    29    28    26    21    19    19    20    22    23    23    28    24    24    22    17    14    11    11    14    16    19    17    14    13    11    12    10    13    10    16    10    11    12     9     8     9    10    14    14    12    10     9    11    12    10     9     8     8     8    11    10    11    13    16    11    14    19    13    12    13    14    12     9    10     9    13    11
631   621   612   599   585   571   560   546   524   504   494   484   471   449   428   418   409   398   386   371   356   345   339   337   333   333   334   339   334   329   327   327   326   321   307   291   286   275   276   267   263   255   253   250   245   236   230   222   219   212   203   196   191   185   179   175   171   168   159   146   139   138   141   144   148   152   150   150   131   117   107    98    90    81    80    81    78    76    70    73    77    76    73    66    55    48    47    48    48    49    54    54    52    52    50    43    38    36    35    35    37    34    31    29    34    29    28    27    28    31    34    38    32    30    33    36    33    28    24    24    24    22    20    18    21    21    20    16    16    18    18    18    20    21    24    30    33    32    32    33    33    31    30    25    27    23    21    20    21    22    25    26    30    31    29    25    24    23    26    29    28    27    24    25    26    27    25    24    21    23    24    22    21    22    21    23    15    13    16    18    21    25    30    28    29    24    21    18    18    18    20    19    25    22    20    21    18    16    16    14    12    14    16    16    16    13    11    11    14    14    11    10    12    10     9    11    10    10    12    16    17    15    12    10    10    12    12    13    16     8     7     7     8     8    10    11    14    13    19    20    14     9    10    13    12    11    10    13     8    10
619   619   610   594   575   562   551   536   516   497   484   472   449   429   418   411   403   389   374   357   342   337   333   325   323   323   325   325   321   319   320   317   311   303   295   284   278   269   264   262   249   246   243   242   241   234   228   218   208   201   197   189   179   173   174   167   165   161   157   149   145   148   153   153   159   158   151   147   125   105    97    90    85    79    78    80    78    74    72    74    77    80    77    70    58    48    44    44    49    47    49    49    48    47    45    41    36    34    35    36    35    32    32    32    30    28    27    30    29    29    30    27    28    29    31    31    29    26    25    24    21    18    18    18    21    23    19    18    18    18    20    18    20    18    23    29    35    35    33    32    32    30    29    24    22    20    19    22    22    25    27    30    33    33    28    27    26    23    23    26    27    29    26    28    29    27    27    24    21    17    19    18    18    18    19    21    14    15    17    20    20    23    27    29    31    30    24    20    20    18    17    22    23    23    22    18    14    13    14    16    16    14    14    17    16    11    12    11    13    12    10     9    13    12    13    15    12    16    15    15    15    15    12    12    11    11    11    12    12     8     8     7    11    11     6     6    11    13    13    14    12     8     8    11    12    12    11    11    14    13
604   606   596   580   563   548   533   524   509   488   475   458   434   419   409   398   390   375   362   348   337   335   322   314   313   313   315   311   306   305   301   300   303   299   292   290   281   270   263   255   248   244   239   236   231   228   224   215   206   200   193   183   175   168   163   161   159   160   157   154   152   151   158   165   161   155   145   134   117    99    90    84    83    78    81    78    74    70    74    78    81    82    78    72    62    50    43    41    47    46    48    50    50    48    46    42    38    36    34    35    33    29    28    30    28    29    28    32    31    31    27    21    26    29    28    24    24    26    27    23    20    19    20    19    22    23    20    19    18    18    18    18    19    21    24    29    33    33    30    29    29    29    26    22    19    20    21    24    24    27    30    32    30    28    26    27    26    23    24    24    26    31    32    30    29    25    27    24    18    15    15    16    19    16    16    17    15    17    16    17    20    22    24    27    29    28    24    21    18    17    18    20    21    24    25    18    15    14    14    11    14    16    11    13    14    12    11     9    11    13    12    11    11    14    11    14    15    16    16    16    17    17    15    15    13     9     8     8    11    14    11    10    10     8     9     9     9     9     6    10     9     7     8     8     9     8    11    13    15    14
590   590   581   567   550   534   525   515   494   475   463   444   422   409   400   387   372   359   350   340   331   324   312   305   304   302   305   304   296   292   287   288   292   289   289   284   276   270   265   257   253   247   241   234   225   223   223   213   204   197   188   173   165   164   162   161   162   163   162   161   166   166   171   170   159   148   136   123   108    97    89    85    85    84    84    76    70    66    67    72    77    83    80    72    62    52    45    41    42    46    46    47    50    48    42    41    40    40    38    36    33    28    27    27    26    25    29    29    35    37    28    24    27    30    26    22    24    27    23    21    21    20    17    18    22    24    21    18    18    17    17    18    22    23    25    25    26    27    26    27    28    27    25    19    19    20    23    27    26    28    33    35    30    27    25    25    24    22    24    23    25    29    32    29    29    29    26    24    23    18    15    16    17    15    13    16    14    15    15    17    20    24    21    23    21    19    18    17    18    18    17    19    20    22    21    17    16    14    14    11    13    16    12    13    13    12    12    14    14    14    14    13    13    14    15    16    19    19    18    17    15    17    16    14    11     8     7     7     6     8     8    10     9     8     8     9     9     8     8     7     7     6     7     9     9     8    10    13    13    12
580   576   565   550   533   524   512   499   483   466   452   431   415   400   388   373   352   347   340   328   319   309   299   298   301   300   298   294   288   285   285   284   283   275   274   273   267   271   260   258   250   242   236   231   222   218   218   212   204   200   194   174   167   165   163   162   163   162   164   165   172   172   169   169   154   144   132   128   109    99    95    91    90    91    88    76    69    62    63    69    73    76    73    65    58    54    51    42    41    42    41    42    48    45    42    45    43    41    39    37    34    31    28    29    27    25    26    29    34    35    33    30    31    30    24    20    23    25    22    22    22    23    22    25    26    24    23    21    22    20    17    17    19    19    19    20    22    25    26    26    26    25    22    20    17    18    20    23    23    29    37    38    31    27    26    26    24    23    19    19    22    25    29    29    30    30    28    25    24    20    19    18    18    19    15    17    14    14    13    15    17    18    20    22    20    21    23    19    20    19    22    20    21    22    19    16    16    15    14    13    13    10    12    11    12    13    14    15    14    14    16    17    16    15    17    17    20    19    18    18    19    18    15    13    11     9     8     7     8     7     8    10    13    10    10    10    10     7     6     6     8     8     9     9     9    10    11    12    12    10
571   560   557   541   524   511   498   482   467   454   444   422   405   390   373   356   346   337   327   316   308   298   292   290   291   290   288   285   284   282   282   278   272   266   265   263   258   258   258   254   248   240   230   225   219   213   209   207   203   200   185   173   165   161   158   156   156   152   152   157   169   173   168   162   150   142   134   129   110   102    94    97    97    90    82    72    65    59    60    62    67    68    68    65    64    57    51    45    41    38    39    41    44    43    43    43    42    38    34    37    36    36    34    29    27    27    27    29    29    30    29    29    30    28    21    21    22    22    20    19    19    22    21    23    23    23    25    25    23    22    21    20    17    17    18    18    21    26    27    27    23    23    21    17    16    17    21    20    21    28    36    36    30    27    27    25    24    23    22    24    23    25    27    27    28    28    27    27    22    19    20    22    19    21    15    16    13    15    15    14    15    16    19    25    22    20    21    20    18    19    18    22    17    15    15    14    13    15    14    14    14    14    10    14    12    17    17    15    15    15    16    18    18    17    17    17    15    16    17    19    14    12    11    11     9     9     8     7     7     8    10     9    12    11     9     8     9    10     8     8     9     8     9    12    13    14    12    13    12    10
556   549   542   535   517   493   484   464   452   440   430   412   398   380   369   358   345   326   313   305   297   288   282   279   281   277   271   274   274   270   268   263   258   257   256   253   248   248   250   246   241   229   220   217   215   213   208   205   201   197   186   176   166   159   155   149   144   140   141   145   149   155   155   151   142   137   129   113   103    97    97   101    93    88    77    66    61    60    58    56    64    65    62    64    64    59    51    44    42    37    36    38    40    42    44    41    38    37    38    40    37    31    28    26    25    26    26    28    26    26    27    25    22    20    18    18    18    19    16    16    16    19    18    21    21    22    26    28    25    22    21    19    18    18    17    18    24    26    27    22    21    19    18    18    20    20    20    22    24    30    33    34    30    28    26    26    25    23    22    21    19    23    27    27    26    28    29    27    23    20    18    18    16    14    15    17    19    16    15    17    14    16    19    20    19    18    18    19    19    22    23    18    13    14    13    13    13    14    14    14    13    13    14    14    14    15    20    16    16    16    19    20    23    25    18    17    15    14    15    13    10    11    11     9    10     9     8     7     6     8    10    10    10    12     8     7     9    11    10    10     9     9    12    14    11    15    15    15    11    12
548   540   529   517   499   488   473   455   441   426   411   399   391   375   364   354   338   323   309   299   290   285   276   273   274   267   258   257   254   254   251   250   248   249   244   239   241   242   241   242   236   223   213   209   208   204   201   195   193   190   184   176   165   157   153   147   137   127   127   138   142   139   135   133   125   117   109    99    94    94    94    93    93    85    78    65    60    61    57    54    54    54    56    58    59    57    53    48    42    39    39    39    39    40    38    38    38    38    39    38    35    32    27    24    22    23    24    28    25    25    23    21    19    20    20    18    18    18    16    19    19    20    22    23    22    22    21    22    21    20    19    18    16    18    19    21    24    22    21    18    18    18    21    25    25    24    26    27    26    32    35    32    33    32    29    28    25    30    24    22    18    17    25    26    26    27    28    25    23    21    19    19    16    13    15    15    17    19    18    16    16    16    15    15    17    19    20    24    25    21    18    17    16    19    18    17    15    13    15    15    15    12    14    16    17    21    22    17    16    16    16    18    22    23    17    14    13    12    13    10     8    10     9     9    10    10     9     6     6     6     9    11    14    13    12    11     8     9    11    11     9     8    14    16    12    16    17    15    11    12
542   520   504   499   485   475   458   438   421   408   397   387   381   373   362   349   333   324   310   302   296   288   281   277   272   261   250   244   240   236   241   237   232   228   225   226   228   230   234   238   231   220   215   210   202   199   189   186   185   183   175   172   167   159   151   143   131   123   120   123   131   133   125   117   108   103    98    96    96    95    95    96    89    76    71    70    61    60    61    56    51    48    51    53    54    53    49    44    40    38    37    37    36    35    33    36    36    39    41    36    32    28    24    21    20    23    25    27    25    22    21    22    20    19    21    22    22    21    21    25    22    21    24    23    22    21    21    23    21    19    15    16    18    19    22    21    23    20    18    16    18    23    30    30    25    24    27    28    27    30    36    37    37    34    30    26    23    23    24    20    16    18    22    25    27    28    27    26    22    19    18    19    16    14    16    14    16    20    23    26    20    18    16    13    13    16    26    29    27    22    19    17    16    15    14    16    12    12    12    13    13    15    16    18    21    23    22    24    18    14    15    15    20    14    12    14    11    10    10    10     8     9     8     9     8    10     9     7     7     5     8    12    14    15    16    11     9    10    11    12    12    14    16    16    14    17    16    12    12    14
517   499   498   484   468   457   446   419   407   394   384   375   370   365   358   340   328   324   315   303   300   295   288   285   282   273   250   237   233   235   227   223   218   214   211   216   216   216   221   226   223   217   214   208   200   196   190   189   183   179   170   167   165   155   140   135   132   131   127   127   127   125   113   103    99    97    97   100   100    99    99    91    88    79    71    64    62    58    57    52    48    47    48    51    51    49    47    44    40    40    40    38    37    33    31    33    35    36    37    33    30    28    27    25    26    26    25    23    22    20    20    19    22    21    19    19    17    18    22    27    25    22    20    19    20    19    18    19    19    21    14    18    20    18    18    20    20    18    16    22    27    30    32    29    27    26    25    26    27    30    37    40    39    37    31    25    24    27    22    18    18    20    21    21    22    26    25    25    20    20    19    20    21    19    14    15    17    21    24    24    22    19    14    15    22    22    24    27    26    23    19    20    22    19    24    19    16    15    13    15    19    21    22    23    25    24    24    19    13    11    12    13    14    10    11    13     9    10     7     6     6     6     8     8     9     9    10    11    10     9     9    11    13    15    16    12    11    10    11    12     9    13    13    13    13    14    13    14    14    10
501   488   482   466   456   444   416   404   387   371   365   359   354   351   345   337   334   330   321   320   310   297   293   287   286   267   248   231   228   229   218   214   203   194   196   206   203   202   206   212   218   217   211   203   196   192   187   183   176   170   162   159   151   145   140   142   145   144   138   133   131   118   113   103    98   102   104   105   107   103   102    92    88    84    75    65    61    61    60    54    48    44    48    49    50    49    49    46    44    41    40    39    34    28    29    31    35    35    33    26    26    25    26    28    27    23    21    21    21    19    18    21    26    25    23    18    16    15    19    23    20    18    17    17    16    17    18    17    17    18    16    20    23    22    21    20    20    18    20    29    37    33    31    26    23    22    23    25    26    24    29    35    34    31    31    28    25    26    21    19    21    22    22    21    22    23    23    22    20    19    19    17    17    17    16    18    21    26    29    27    22    17    15    17    18    20    20    23    23    22    22    25    26    25    26    27    20    16    18    23    25    25    25    26    24    21    18    14    11    10    10    12    13    13    14    12    11    10     9     7     9     7     8     9     9    11    11    12    10    13    12    12    14    14    14    15    14    10     9    10     8    10    11    13    14    14    17    16    17    14
490   475   460   449   436   420   403   387   369   361   354   345   341   341   340   340   340   334   325   325   308   302   299   292   283   273   256   236   230   225   217   207   199   191   190   191   191   190   196   200   207   204   199   193   187   186   179   170   165   162   157   152   147   148   154   159   157   151   146   138   127   112   105    99    96   101   108   112   110   105   103    90    85    82    71    67    64    64    62    54    46    44    47    46    49    51    48    52    49    46    40    35    31    29    28    29    29    26    26    25    26    27    27    31    30    30    21    21    19    18    20    23    26    25    23    19    19    18    21    17    16    15    16    16    16    17    15    16    16    18    16    20    26    24    23    21    20    21    22    28    34    35    32    28    26    24    24    26    28    25    27    30    29    33    31    29    24    26    22    23    22    21    19    19    17    16    17    21    21    21    20    17    14    16    21    24    26    27    26    23    20    16    17    17    19    20    22    21    21    23    23    24    24    25    26    25    21    20    20    24    26    27    27    26    24    17    15    11     9     8    11    12    10    10    11    13    15    14     9     9    10     9    10    12    12    12    10    10    11    12    11    12    11    12    12    12    11     9     9    10    11    14    14    16    18    18    20    18    17    17
481   464   446   433   424   408   392   378   364   355   345   337   330   330   327   331   332   328   320   315   311   308   304   299   289   274   268   247   232   220   218   207   191   184   179   180   181   186   192   197   194   193   190   187   183   182   176   166   162   162   158   158   163   168   170   167   168   160   151   141   129   120   106    99   105   106   108   113   108   106   103    97    86    73    68    65    61    58    55    49    48    46    44    44    50    55    51    51    51    41    37    34    32    29    27    27    25    24    23    22    22    24    26    28    24    27    24    23    22    21    26    26    20    18    18    16    19    21    21    21    16    14    16    18    21    22    20    18    20    16    16    16    20    24    22    18    18    19    22    30    35    36    30    22    22    21    23    24    21    23    28    29    28    30    30    27    23    26    26    23    21    19    19    20    17    19    18    17    18    20    18    15    17    21    23    22    26    25    21    20    19    18    16    16    17    21    21    18    18    18    19    20    22    20    20    21    19    17    20    22    22    22    23    21    18    15    13    10     6     7     9    11    11    11    14    12    11    10     8     8     8     9    10    11    13    11     9    10    11    10    10    10    11    13    14    12    11    11    10     9    10    14    16    16    18    18    20    18    17    16
463   449   433   423   413   399   384   369   357   347   333   319   322   310   307   313   317   317   322   321   316   313   303   297   285   268   268   249   229   217   213   201   191   176   172   171   172   177   185   189   189   191   188   185   181   176   171   165   167   164   166   172   181   182   178   173   171   164   155   146   134   124   115   108   103   103   106   106   101    98    99    94    85    72    65    61    58    54    50    47    45    43    43    44    51    55    50    45    41    38    38    37    36    31    25    23    25    24    25    24    21    22    24    24    23    22    21    22    23    23    26    30    24    21    24    21    22    23    24    19    20    17    17    21    26    30    27    22    18    18    18    17    18    22    20    18    18    18    25    30    30    28    25    22    21    21    24    22    22    23    25    28    28    29    26    26    27    24    26    23    20    18    19    17    15    14    14    15    16    16    16    16    18    21    20    20    24    23    17    18    16    16    15    15    15    17    16    16    16    17    17    23    16    15    16    18    17    15    20    18    16    17    15    16    13     9    11     8    10    10    10    10    12    14    15    12    11    10     8     6     7     9     9    10    12    13    12    12    11    11    12    13    13    14    13    11    11    11    12    12    16    18    20    19    18    17    16    17    18    18
447   431   416   405   396   391   376   355   342   334   325   317   305   293   295   304   305   308   307   308   310   306   302   287   278   268   252   243   229   218   207   192   180   173   167   167   166   167   176   181   184   183   181   178   171   166   167   164   164   164   171   179   186   187   185   176   169   161   160   153   141   131   122   111   105    97    97    98   100    96    99    95    83    70    62    54    48    45    46    45    46    43    43    46    53    54    47    38    35    36    39    40    36    31    26    24    24    21    21    21    20    20    24    27    26    23    21    20    22    24    27    22    23    29    32    36    32    27    24    23    23    21    23    27    33    36    30    20    17    18    19    17    20    23    26    27    28    28    25    28    25    23    20    19    20    22    21    23    23    23    26    27    26    25    24    29    24    23    25    23    20    19    19    19    19    17    15    14    15    16    15    16    17    20    18    19    20    20    18    18    18    17    17    15    14    14    12    12    16    15    19    17    16    16    15    16    14    13    15    13    11    12    11    11    10    13     8     9    12    11    11    12    13    11    10    13    13    11     7     7    10     9    10    12    10    11    11    12    11    10    10    11    13    14    13    11    13    11    12    16    20    19    18    19    18    17    16    18    20    18
429   418   406   394   384   374   356   336   329   324   314   308   298   289   287   294   298   302   297   297   292   296   279   279   273   251   242   236   230   220   212   198   182   173   161   158   157   157   167   172   176   174   168   163   155   154   155   157   162   166   171   183   188   192   181   172   162   159   161   157   151   139   127   115   105    97    92    87    91    95    95    91    81    71    59    49    43    39    41    41    43    40    41    46    51    50    40    33    31    34    37    37    38    35    30    27    25    23    21    23    21    20    25    27    25    24    23    22    24    29    24    22    23    22    36    33    30    31    32    28    24    19    23    27    35    40    31    25    19    19    19    20    21    21    26    28    28    27    28    23    22    20    22    24    24    24    23    24    28    29    27    26    27    27    28    24    24    23    23    23    21    22    22    22    19    17    14    15    15    17    16    17    17    18    19    21    20    20    17    20    13    12    16    13    12    14    11    13    15    15    19    14    12    13    14    13    12    10    12    10     9    13    12    12    12    12    11    11    10    10    12    11    12    11    12    10    10     8     7     8     8     7    12    12    11    10    10    10    10    10     9     9    12    12    11    10     9    11    13    16    18    19    17    18    19    17    18    18    19    18
415   407   399   387   373   361   337   325   322   314   302   299   291   285   285   290   292   288   273   272   278   277   273   261   256   246   239   233   225   218   211   199   185   174   158   150   147   151   161   163   170   168   163   151   145   141   144   147   154   159   164   173   180   176   172   169   160   157   158   155   148   141   129   118   106   101    92    84    80    87    91    80    76    68    60    46    41    41    37    37    37    37    40    43    48    46    38    34    30    31    34    36    37    36    32    26    27    26    22    23    23    21    22    22    20    19    20    21    24    25    26    25    26    28    29    34    32    30    30    27    22    19    20    19    32    38    36    27    19    16    18    19    23    22    24    29    25    28    25    20    19    20    23    24    22    20    23    27    32    32    31    22    27    26    27    25    24    26    27    25    21    22    24    22    19    17    16    16    18    18    18    19    19    22    22    21    19    18    17    21    13    12    16    15    13    12    11    11    13    13    13    16    10    11    12    13    11     8     8     8     6     9    11    13    14    12    11    11     9    10    11    11    10    10     9     8     8     8     8    10     9     9     9     9     8    12    10     9    10    10     9     9     9     9     9     8     8     8    10    15    18    18    16    18    21    19    17    16    17    20
408   402   393   375   361   348   335   325   313   301   293   292   286   283   279   280   276   266   256   254   259   255   257   253   247   241   238   230   224   217   205   190   178   167   158   148   145   145   151   154   158   156   154   146   136   135   136   139   144   149   158   173   173   169   164   154   150   152   151   148   147   138   133   120   110   102    89    79    71    72    77    74    73    69    60    51    47    42    41    36    33    35    38    42    42    40    37    30    26    29    32    33    32    32    32    26    25    25    26    25    22    20    21    19    19    19    17    18    25    24    22    25    28    26    22    30    30    24    29    22    22    19    20    23    29    39    37    42    22    16    16    19    21    26    23    34    33    25    21    19    21    22    27    25    22    16    20    23    24    25    22    26    24    22    26    29    26    28    27    27    23    22    23    23    21    18    15    15    18    17    18    22    27    26    22    20    18    15    14    13    15    14    13    12    12    10     9    10    10    12    12    13    13     8    10    13    14    10     9     8     9     9     9    11    13    11    10     9     7     8    10    10     9     8     9     8     7     8     7     7    11    15     9     8     8     8    10     9    10     8     8     9    11    10     8    10     7     8    10    15    18    17    18    19    19    17    14    17    18    19
401   395   378   364   351   342   328   315   303   292   290   288   284   277   273   261   255   250   243   242   250   251   245   236   229   224   227   223   219   207   199   187   175   164   156   149   148   145   142   141   146   146   145   142   136   134   133   135   139   150   164   170   172   167   153   144   142   142   142   142   142   139   132   120   114   103    88    76    72    69    72    68    67    67    57    47    45    45    45    40    37    37    37    37    38    39    34    29    25    27    26    26    28    28    30    30    28    22    24    25    23    21    18    15    17    18    18    18    24    24    28    29    26    24    22    26    20    18    23    26    24    24    19    21    29    30    37    42    32    21    14    16    19    22    25    38    30    27    20    21    22    26    27    24    21    17    18    19    18    20    23    21    20    22    22    29    28    27    25    27    23    21    23    24    23    17    15    15    16    19    19    21    21    19    18    18    17    15    13    12    12    14    12    11    10     9    11    11    10    12    12    10    10    12    14    14    13    11    10     9     8     8     8     8    13     9     8     8     9    11    11     8     8    10     9     8     8     8     9     7    11    14    10     9     9    13    10     9    11     9     9    11    13    13    11    10    10    10    11    13    15    15    15    16    18    18    17    19    17    16
394   374   365   357   344   337   321   307   298   293   291   290   285   275   264   258   255   250   242   240   239   245   232   219   210   207   207   206   203   199   193   185   174   167   156   153   148   142   139   137   140   139   138   138   138   136   138   142   149   163   171   172   171   158   147   138   135   133   131   132   132   129   123   112   108    97    87    75    73    71    70    66    64    60    54    48    43    43    43    41    39    39    41    37    37    35    32    27    26    28    24    23    26    27    28    27    24    23    26    25    23    22    18    18    20    20    20    22    31    30    33    26    22    23    22    22    22    17    21    31    24    26    20    29    28    28    29    34    36    29    22    19    21    24    31    34    30    27    20    23    22    22    24    20    18    16    19    20    18    15    16    19    22    24    27    33    33    30    31    27    22    20    19    21    22    17    15    16    14    17    19    18    19    20    15    15    13    13    13    12    10    10    11    12    11    12    11    11    12    12    12    11    10    10    12    13    12    11    11    10     8     8     9     9    10     9     8     8     9    12    11     9     9     9     9    10    10     8     8     9    11    11    10     7     6    10    10    12    11    12    11    14    14    15    12    11    11    11    11    15    15    16    15    17    20    21    19    17    14    15
380   368   360   348   342   333   320   302   298   294   292   289   285   279   269   258   249   242   235   232   230   237   224   208   201   195   192   190   186   185   189   183   172   165   155   142   138   136   136   140   141   141   137   135   135   136   142   155   167   178   176   171   161   152   139   130   128   127   129   127   127   123   114   106    98    84    83    77    71    68    71    69    64    56    51    47    44    41    42    43    45    42    40    36    35    31    29    25    26    28    24    24    27    28    29    29    29    32    33    33    27    22    19    17    19    20    19    25    31    32    30    25    26    25    26    23    21    18    31    37    30    30    28    27    31    30    26    27    28    30    32    33    30    19    23    33    27    17    20    20    20    20    19    19    18    16    16    18    19    18    18    20    22    24    30    35    34    29    31    28    23    19    17    18    17    17    18    13    14    16    16    16    16    17    16    14    12    12    13    11    10    11    11    11    12    13    11     8     9    11    11    11     9     9    14    10    10     9     9    10     9     9     9    10    11     7     7     8    11    12    14    13     9     8    10    11    13     9     7    10     8     9    10     8    10    13     9     9    11    13    14    14    14    15    13    11    12    12    14    20    20    20    18    18    19    20    22    18    14    15
381   371   359   348   342   335   326   316   304   300   298   294   286   281   271   257   244   234   228   216   212   219   210   198   192   185   180   175   175   178   179   174   172   158   148   141   129   129   132   132   128   122   123   125   126   129   140   164   168   178   171   159   151   144   134   126   119   119   123   125   123   117   109    95    86    80    75    79    72    72    74    68    63    55    51    50    46    43    44    47    50    45    41    37    31    29    30    32    31    28    27    30    28    28    29    30    30    31    30    28    23    20    20    18    20    23    28    41    38    32    24    24    26    28    30    32    31    28    32    34    24    33    31    24    25    26    23    25    27    34    30    38    35    33    26    21    22    17    23    21    22    21    18    20    19    17    17    18    19    19    16    22    24    23    30    30    31    29    27    26    24    23    20    17    15    15    15    15    15    14    15    14    14    13    15    14    13    12    11    11    10    11    10    12    10    11    11     9     9    10     9     9     8     7    11    10     9     9     8     8     9    11     9    12     8     7     8    10    13    15    13     9     8     9    15    14    13    11    10     7     7     9    10    11    12     9     9     9    15    14    13    12    14    15    13    11    12    14    19    26    27    24    19    17    17    17    19    18    15    15
374   363   353   351   340   334   330   324   320   316   312   305   295   289   275   259   244   232   218   210   206   204   192   186   179   176   174   171   172   174   175   167   160   160   145   135   131   127   123   121   114   111   112   113   119   127   143   158   167   174   163   149   140   134   127   118   108   108   115   122   118   109   104    94    86    82    80    79    73    72    71    66    62    57    56    56    51    48    47    50    50    44    41    34    30    31    33    33    28    27    28    29    27    27    27    27    28    29    25    22    21    23    21    20    26    34    39    44    43    29    22    23    27    30    32    40    37    40    33    32    22    21    27    29    21    23    23    27    26    26    28    29    32    35    33    18    23    27    26    24    23    23    22    22    19    17    17    17    19    16    18    20    21    27    24    26    30    30    27    23    22    24    22    19    18    17    15    15    14    14    15    14    12    13    14    15    15    14    11    11    11    10    12    13    12    11    10    11     8    10    11    10    10     9     9     9     8     9     9     8     8     8     9     8     8     7    10    12    15    10     9     8     7     8    10    11    14    14    12    13    10    12    12    11    11     9    10    14    18    15    15    13    12    15    16    17    15    20    26    27    25    24    19    19    17    16    15    13    15    16
