ncols 250
nrows 63
xllcorner 107.314453
yllcorner 395.87677
cellsize 25
NODATA_value -9999
112   116   113   121   124   112    90    83    78    66    52    44    22     0     0     0     0     0     0     0     0     0     0     0     0     0     0     0     0     0     0     0     0     0     0     0     0     0     0     0     0     0     0     0     0     0     0     0     0     0     0     0     0     0     0     0     4     0     0     0     0     0     0     0     0     0     0     0     0     0     6    16    15     6     0     0     0     0     0     0     0     0     0     0     0     0     0     0     4     7     6    11    30    38    30     0     0     0     0     0     0     0     0     0     0     0     3     3     4    13    22    29    32    35    36    41    32    29    23    22     8     0    12     8     4     9    17    21    17    19    21     0     0     0     0     4     4     0     0     0     0     0     0     0     0     0     0     0     0     0     0     0     8    16    24    37    31    29    12     4     0     0     0     0     0     0     0     0     0     0     0     0     0     0     0     0     0     0     0     0     0     0     0     0     0     0     0     0     0     0     0     0     0     0     0     0     0     0     0     0     2     4     4     7    11    16    23    29    31    32    29    27    26    28    25    20    23    28    30    31     9     0     0     0     0     0     0     0     0     0     0     0     0     0     0     0     0     0     0     0     0     0     0     0     0     0     0     0     0     0
119   115   111   119   114    90    83    76    67    54    43    34    15     0     0     0     0     0     0     0     0     0     0     0     0     0     0     0     0     0     0     0     0     0     0     0     0     0     0     0     0     0     0     0     0     0     0     0     0     0     0     0     0     0     0     0     0     0     0     0     0     0     0     0     0     0     0     0     0     0    12    14    15    12     0     0     0     0     0     0     0     0     0     0     0     0     0     0     0     0     3    10    21    32    30    28     0     0     0     0     0     0     0     0     0     2     4     5     9    23    30    37    38    43    46    44    38    28     0     0     0     0     7     5     9    16    20    20    16    25    19     0     0     0     0    10     8     6     0     0     0     0     0     0     0     0     0     0     0     0     0     2     6    11    18    22    25    23    16     6     0     0     0     0     0     0     0     0     0     0     0     0     0     0     0     0     0     0     0     0     0     0     0     0     0     0     0     0     0     0     0     0     0     0     0     0     0     0     0     0     0     0     0     0     0     0     5    14    24    25    24    22     0     0     0     0     0     0     0     0     0     0     0     0     0     0     0     0     0     0     0     0     0     0     0     0     0     0     0     0     0     0     0     0     0     0     0     0     0     0
101   114   107   112   110    95    81    70    57    48    41    35    19     0     0     0     0     0     0     0     0     0     0     0     0     0     0     0     0     0     0     0     0     0     0     0     0     0     0     0     0     0     0     0     0     0     0     0     0     0     0     0     0     0     0     0     0     0     0     0     0     0     0     0     0     0     0     0     0     0     6    19    18    15     9     0     0     0     0     0     0     0     0     0     0     0     0     0     0     0     0     7    16    33    39    34    18     8     3     0     0     0     0     0     0     4     5    11    24    29    43    43    50    45    45    50    24     0     0     0     0     5     5    13    18    19    16    22    25    23     0     0     0     0     0     9    12     5     0     0     0     0     0     0     0     0     0     0     0     0     0     0     0     0     0     9    29    23    12    13     0     0     0     0     0     0     0     0     0     0     0     0     0     0     0     0     0     0     0     0     0     0     0     0     0     0     0     0     0     0     0     0     0     0     0     0     0     0     0     0     0     0     0     0     0     0     0     0     0     0     0     0     0     0     0     0     0     0     0     0     0     0     0     0     0     0     0     0     0     0     0     0     0     0     0     0     0     0     0     0     0     0     0     0     0     0     0     0     0     0
74    96    94   104   106   101    80    65    53    44    37    34    19     0     0     0     0     0     0     0     0     0     0     0     0     0     0     0     0     0     0     0     0     0     0     0     0     0     0     0     0     0     0     0     0     0     0     0     0     0     0     0     0     0     0     0     0     0     0     0     0     0     0     0     0     0     0     0     0     0     0     0    12    18    18     8     3     0     0     0     0     0     0     0     0     0     0     0     0     0     0     9    16    30    35    32    32    19     9     3     0     0     0     3     4     9    13    25    35    47    46    48    49    47    46    33    21     0     0     0     3     5    11    23    18    20    10     0     0     0     0     0     0     0     0     0     4     3     0     0     0     0     0     0     0     0     0     0     0     0     0     0     0     0     0     0     0     0     0    12     6     5     0     0     0     0     0     0     0     0     0     0     0     0     0     0     0     0     0     0     0     0     0     0     0     0     0     0     0     0     0     0     0     0     0     0     0     0     0     0     0     0     0     0     0     0     0     0     0     0     0     0     0     0     0     0     0     0     0     0     0     0     0     0     0     0     0     0     0     0     0     0     0     0     0     0     0     0     0     0     0     0     0     0     0     0     0     0     0     0
73    81    87    94    96    98    91    73    51    37    31    26    10     0     0     0     0     0     0     0     0     0     0     0     0     0     0     0     0     0     0     0     0     0     0     0     0     0     0     0     0     0     0     0     0     0     0     0     0     0     0     0     0     0     0     0     0     0     0     0     0     0     0     0     0     0     0     0     0     0     0     0     0    21    19    17    10     8     6     7     5     0     0     0     0     0     0     0     0     0     0     5    14    23    35    32    33    21     6     0     0     0     0     7    12    17    24    35    54    58    58    58    53    43    34    30    21     0     0     0     4    10    18    25    18     8     0     0     0     0     0     0     0     0     0     0     0     0     0     0     0     0     0     0     0     0     0     0     0     0     0     0     0     0     0     0     0     0     0     5     7    12     9     4     0     0     0     0     0     0     0     0     0     0     0     0     0     0     0     0     0     0     0     0     0     0     0     0     0     0     0     0     0     0     0     0     0     0     0     0     0     0     0     0     0     0     0     0     0     0     0     0     0     0     0     0     0     0     0     0     0     0     0     0     0     0     0     0     0     0     0     0     0     0     0     0     0     0     0     0     0     0     0     0     0     0     0     0     0     0
62    68    74    87   101   103    92    76    49    29    23    16     9     0     0     0     0     0     0     0     0     0     0     0     0     0     0     0     0     0     0     0     0     0     0     0     0     0     0     0     0     0     0     0     0     0     0     0     0     0     0     0     0     0     0     0     0     0     0     0     0     0     0     0     0     0     0     0     0     0     0     0     6    12    17    20    15     7     8     9     7     6     0     0     0     0     0     0     0     0     0     0     0    10    18    34    33    26     9     0     0     0     5    14    21    26    36    57    59    60    60    57    57    38    23    22     8     0     0     0     0    13    25    19    14     9     0     0     0     0     0     0     0     0     0     0     0     0     0     0     0     0     0     0     0     0     0     0     0     0     0     0     0     0     0     0     0     0     0     2    11    16    14     0     0     0     0     0     0     0     0     0     0     0     0     0     0     0     0     0     0     0     0     0     0     0     0     0     0     0     0     0     0     0     0     0     0     0     0     0     0     0     0     0     0     0     0     0     0     0     0     0     0     0     0     0     0     0     0     0     0     0     0     0     0     0     0     0     0     0     0     0     0     0     0     0     0     0     0     0     0     0     0     0     0     0     0     0     0     0
68    68    73    88   103   106    91    67    45    26    23    18    11     6     0     0     0     0     0     0     0     0     0     0     0     0     0     0     0     0     0     0     0     0     0     0     0     0     0     0     0     0     0     0     0     0     0     0     0     0     0     0     0     0     0     0     0     0     0     0     0     0     0     0     0     0     0     0     0     0     0     0     0    11    14    16    12     5    12    10     9     9     0     0     0     0     0     0     0     0     0     0     0     0     8    38    32    33    18     5     0     0     9    22    29    37    53    60    59    61    65    60    47    18    18    10     0     0     0     0     9    17    21    20    11     0     0     0     0     0     0     0     0     0     0     0     0     0     0     0     0     0     0     0     0     0     0     0     0     0     0     0     0     0     0     0     0     0     0     0     6    16     9     0     0     0     0     0     0     0     0     0     0     0     0     0     0     0     0     0     0     0     0     0     0     0     0     0     0     0     0     0     0     0     0     0     0     0     0     0     0     0     0     0     0     0     0     0     0     0     0     0     0     0     0     0     0     0     0     0     0     0     0     0     0     0     0     0     0     0     0     0     0     0     0     0     0     0     0     0     0     0     0     0     0     0     0     0     0     0
71    71    75    91   106   110    94    68    45    34    28    23    15     8     2     0     0     0     0     0     0     0     0     0     0     0     0     0     0     0     0     0     0     0     0     0     0     0     0     0     0     0     0     0     0     0     0     0     0     0     0     0     0     0     0     0     0     0     0     0     0     0     0     0     0     0     0     0     0     0     0     0     0     0     0     8    10    10    13    11    11     4     0     0     0     0     0     0     0     0     0     0     0     0     0    23    35    31    26    21    10     7    15    25    31    53    56    54    58    59    45    40    23    19     8     0     0     0     0     7    11    20    22    18     0     0     0     0     0     0     0     0     0     6     6     0     0     0     0     0     0     0     0     0     0     0     0     0     0     0     0     1     2     1     0     0     0     0     0     0     0     0     3     0     0     0     0     0     0     0     0     0     0     0     0     0     0     0     0     0     0     0     0     0     0     0     0     0     0     0     0     0     0     0     0     0     0     0     0     0     0     0     0     0     0     0     0     0     0     0     0     0     0     0     0     0     0     0     0     0     0     0     0     0     0     0     0     0     0     0     0     0     0     0     0     0     0     0     0     0     0     0     0     0     0     0     0     0     0     0
69    81    87   103   109   111    99    77    56    45    35    27    18    10     2     0     0     0     0     0     0     0     0     0     0     0     0     0     0     0     0     0     0     0     0     0     0     0     0     0     0     0     0     0     0     0     0     0     0     0     0     0     0     0     0     0     0     0     0     0     0     0     0     0     0     0     0     0     0     0     0     0     0     0     0     0     8     9    13    14     8     0     0     0     0     0     0     0     0     0     0     0     0     0     0    19    25    30    23    18    15    11    16    27    37    58    53    50    45    44    29    15     0     0     0     0     0     0     0    15    19    26    24    23     0     0     0     0     0     0     0     0     5    15    17    21    23    15    10     6     3     0     0     0     0     0     0     0     0     0     0     3     3     3     0     0     0     0     0     0     0     0     0     0     0     0     0     0     0     0     0     0     0     0     0     0     0     0     0     0     0     0     0     0     0     0     0     0     0     0     0     0     0     0     0     0     0     0     0     0     0     0     0     0     0     0     0     0     0     0     0     0     0     0     0     0     0     0     0     0     0     0     0     0     0     0     0     0     0     0     0     0     0     0     0     0     0     0     0     0     0     0     0     0     0     0     0     0     0     0
83    87    97   114   116   106    93    82    71    61    48    36    25     8     3     0     0     0     0     0     0     0     0     0     0     0     0     0     0     0     0     0     0     0     0     0     0     0     0     0     0     0     0     0     0     0     0     0     0     0     0     0     0     0     0     2     7     7     5     5     4     3     2     1     0     0     0     0     0     0     0     0     0     0     0     4     7     9    14    15     0     0     0     0     0     0     0     0     0     0     0     0     0     0     7    12    17    21    24    20    16    12    17    28    44    60    63    56    47    35    20     0     0     0     0     0     0     0     0    11    26    26    20    15     8     0     0     0     0     0     0     0    11    20    32    36    32    30    21    15     8     0     0     0     0     0     0     0     0     0     0     0     4     5     0     0     0     0     0     0     0     0     0     0     0     0     0     0     0     0     0     0     0     0     0     0     0     0     0     0     0     0     0     0     0     0     0     0     0     0     0     0     0     0     0     0     0     0     0     0     0     0     0     0     0     0     0     0     0     0     0     0     0     0     0     0     0     0     0     0     0     0     0     0     0     0     0     0     0     0     0     0     0     0     0     0     0     0     0     0     0     0     0     0     0     0     0     0     0     0
95    99   113   118   118   102    93    86    89    80    69    49    39    17     6     0     0     0     0     0     0     0     0     0     0     0     0     0     0     0     0     0     0     0     0     0     0     0     0     0     0     0     0     0     0     0     0     0     0     0     0     0     0     0     0     5    10    10     9     9     8     8     5     6     7     4     3     0     0     0     0     0     0     0     0     5     8    10    13     0     0     0     0     0     0     0     0     0     0     0     0     0     0     0     0     0     0     3    15    24    19    15    19    39    55    65    66    61    44    36    20     0     0     0     0     0     0     0    13    28    27    26    18    12     9     8     7     8     6     0     0    15    26    39    44    47    41    30    21    17    10     0     0     0     0     0     0     0     0     0     0     0     0     0     0     0     0     0     0     0     0     0     0     0     0     0     0     0     0     0     0     0     0     0     0     0     0     0     0     0     0     0     0     0     0     0     0     0     0     0     0     0     0     0     0     0     0     0     0     0     0     0     0     0     0     0     0     0     0     0     0     0     0     0     0     0     0     0     0     0     0     0     0     0     0     0     0     0     0     0     0     0     0     0     0     0     0     0     0     0     0     0     0     0     0     0     0     0     0     0
99   108   117   121   116    99    88    82    78    82    76    69    55    41    18     0     0     0     0     0     0     0     0     0     0     0     0     0     0     0     0     0     0     0     0     0     0     0     0     0     0     0     0     0     0     0     0     0     0     0     0     0     0     0     0     6    10    12    10    10    10    10     9     6     9     6     7     3     0     0     0     0     0     0     0     0     0     0     0     0     0     0     0     0     0     0     0     0     0     0     0     0     0     0     0     0     0     0     5    17    18    15    21    39    52    58    56    49    44    42    22     8     0     0     0     0     0    11    22    33    30    25    15    11     9     9    11    13    16    15     9    13    33    47    71    73    47    31    20    14     0     0     0     0     0     0     0     0     0     0     0     0     0     0     0     0     0     0     0     0     0     0     0     0     0     0     0     0     0     0     0     0     0     0     0     0     0     0     0     0     0     0     0     0     0     0     0     0     0     0     0     0     0     0     0     0     0     0     0     0     0     0     0     0     0     0     0     0     0     0     0     0     0     0     0     0     0     0     0     0     0     0     0     0     0     0     0     0     0     0     0     0     0     0     0     0     0     0     0     0     0     0     0     0     0     0     0     0     0     0
100   112   118   118   110    99    87    77    71    70    73    69    61    51    28     0     0     0     0     0     0     0     0     0     0     0     0     0     0     0     0     0     0     0     0     0     0     0     0     0     0     0     0     0     0     0     0     0     0     0     0     0     0     2     3    11    13    16    13    17    21    21    17     7     5     9     7     4     0     0     0     0     0     0     0     0     0     0     0     0     0     0     0     0     0     0     0     0     0     0     0     0     0     0     0     0     0     5     8    15    24    24    25    38    50    54    49    45    45    43    30    20    13     6     7     0     9    17    30    40    37    23    16    11     8     9    10    14    16    14    15    28    37    71    76    76    71    42    23    18     0     0     0     0     0     0     0     0     0     0     0     0     0     0     0     0     0     0     0     0     0     0     0     0     0     0     0     0     0     0     0     0     0     0     0     0     0     0     0     0     0     0     0     0     0     0     0     0     0     0     0     0     0     0     0     0     0     0     0     0     0     0     0     0     0     0     0     0     0     0     0     0     0     0     0     0     0     0     0     0     0     0     0     0     0     0     0     0     0     0     0     0     0     0     0     0     0     0     0     0     0     0     0     0     0     0     0     0     0     0
99   110   111   103    96    92    83    66    54    54    60    63    58    56    31     0     0     0     0     0     0     0     0     0     0     0     0     0     0     0     0     0     0     0     0     0     0     0     0     0     0     0     0     0     0     0     0     0     0     0     0     0     0     4     8    12    19    18    19    27    32    32    29    15    10     6     7     5     0     0     0     0     0     0     0     0     0     0     0     0     0     0     0     0     0     0     0     0     0     0     0     0     0     0     0     0     0     7    10    17    26    31    35    51    58    55    50    48    46    40    34    24    14     9     6     8    13    27    43    43    48    42    28    30    16    19    15    14    15    21    30    36    57    83    90    78    74    45    32    23     0     0     0     0     0     0     0     0     0     0     0     0     0     0     0     0     0     0     0     0     0     0     0     0     0     0     0     0     0     0     0     0     0     0     0     0     0     0     0     0     0     0     0     0     0     0     0     0     0     0     0     0     0     0     0     0     0     0     0     0     0     0     0     0     0     0     0     0     0     0     0     0     0     0     0     0     0     0     0     0     0     0     0     0     0     0     0     0     0     0     0     0     0     0     0     0     0     0     0     0     0     0     0     0     0     0     0     0     0     0
100   112   106    97    88    79    75    57    49    45    46    56    56    50    23     0     0     0     0     0     0     0     0     0     0     0     0     0     0     0     0     0     0     0     0     0     0     0     0     0     0     0     0     0     0     0     0     0     0     0     0     0     3     3     6     9    13    13    13    24    32    36    36    40    27    22    11     7     3     4     3     0     0     0     0     0     0     0     0     0     0     0     0     0     0     0     0     0     0     0     0     0     0     0     0     0     0    10    13    16    30    44    54    66    62    54    44    28    29    32    32    25    17    13     9     5    14    27    49    54    59    56    58    57    48    41    34    26    26    28    42    54    70    87    84    83    71    52    40    24     0     0     0     0     0     0     0     0     0     0     0     0     0     0     0     0     0     0     0     0     0     0     0     0     0     0     0     0     0     0     0     0     0     0     0     0     0     0     0     0     0     0     0     0     0     0     0     0     0     0     0     0     0     0     0     0     0     0     0     0     0     0     0     0     0     0     0     0     0     0     0     0     0     0     0     0     0     0     0     0     0     0     0     0     0     0     0     0     0     0     0     0     0     0     0     0     0     0     0     0     0     0     0     0     0     0     0     0     0     0
98   105   104    90    74    69    67    54    39    31    36    44    45    40    29    16     4     2     0     0     0     0     0     0     0     0     0     0     0     0     0     0     0     0     0     0     0     0     0     0     0     0     0     0     0     0     0     0     0     0     0     2     4     6     7     7     8     8     7    21    35    41    42    45    33    24    26    17    10     6     5     6     6     3     3     3     2     3     4     5     0     0     0     0     0     0     0     0     0     0     0     0     0     0     0     0     0    12    19    22    51    64    73    74    66    52    26    19    19    24    29    31    25    15    11    12    13    23    42    59    66    70    87    83    74    60    54    53    33    40    51    53    66    76    82    75    67    52    38    25     0     0     0     0     0     0     0     0     0     0     0     0     0     0     0     0     0     0     0     0     0     0     0     0     0     0     0     0     0     0     0     0     0     0     0     0     0     0     0     0     0     0     0     0     0     0     0     0     0     0     0     0     0     0     0     0     0     0     0     0     0     0     0     0     0     0     0     0     0     0     0     0     0     0     0     0     0     0     0     0     0     0     0     0     0     0     0     0     0     0     0     0     0     0     0     0     0     0     0     0     0     0     0     0     0     0     0     0     0     0
96   102    99    88    76    67    57    46    32    25    25    35    38    36    25    16     5     0     0     0     0     0     0     0     0     0     0     0     0     0     0     0     0     0     0     0     0     0     0     0     0     0     0     0     0     0     0     0     0     4     4     6     6     8     7     6     6     7     9    21    33    47    50    49    46    31    25    25    20    12     8     7    10     5     9     9     8     7     8    10    12    11     0     0     0     0     0     0     0     0     0     0     0     0     0     0     0    11    20    38    65    69    74    80    71    54    33    22    19    31    40    45    39    29    18    13    13    13    22    52    69    81    93    98    90    75    66    54    47    51    45    44    53    64    69    65    57    42    31     0     0     0     0     0     0     0     0     0     0     0     0     0     0     0     0     0     0     0     0     0     0     0     0     0     0     0     0     0     0     0     0     0     0     0     0     0     0     0     0     0     0     0     0     0     0     0     0     0     0     0     0     0     0     0     0     0     0     0     0     0     0     0     0     0     0     0     0     0     0     0     0     0     0     0     0     0     0     0     0     0     0     0     0     0     0     0     0     0     0     0     0     0     0     0     0     0     0     0     0     0     0     0     0     0     0     0     0     0     0     0
95   102   103    94    80    65    53    43    32    27    25    29    34    30    27    17     5     0     0     0     0     0     0     0     0     0     0     0     0     0     0     0     0     0     0     0     0     0     0     0     0     0     0     0     0     0     0     0     0     4     5     8    10     7     6     8    10    14    21    25    35    51    56    59    56    48    28    31    30    25    18    12     8     6     9     9     8     7    10    14    19    17     6     0     0     0     0     0     0     0     0     0     0     0     0     0     0     7    18    38    68    68    76    75    73    59    40    25    26    37    51    68    63    47    35    23    14    18    28    46    71    96   103    98    95    84    68    40    51    44    41    34    20    19    25    34    40    34    24     0     0     0     0     0     0     0     0     0     0     0     0     0     0     0     0     0     0     0     0     0     0     0     0     0     0     0     0     0     0     0     0     0     0     0     0     0     0     0     0     0     0     0     0     0     0     0     0     0     0     0     0     0     0     0     0     0     0     0     0     0     0     0     0     0     0     0     0     0     0     0     0     0     0     0     0     0     0     0     0     0     0     0     0     0     0     0     0     0     0     0     0     0     0     0     0     0     0     0     0     0     0     0     0     0     0     0     0     0     0     0
98   106   100   100    80    67    56    45    34    27    23    20    25    27    26    22     7     0     0     0     0     0     0     0     0     0     0     0     0     0     0     0     0     0     0     0     0     0     0     0     0     0     0     0     0     0     0     0     0     3     3     6    10    10    11    11    16    20    23    28    33    45    52    62    66    63    52    35    29    34    24    13    12    10    10     9    10    10    18    18    20    16     0     0     0     0     0     0     0     0     0     0     0     0     0     0     0     0     0    27    60    66    64    69    61    33    27    31    37    45    66    63    63    60    46    33    17    22    34    43    62    98   100   107   102    84    47     0     0     0     0     6     6     7    11    15    21    23    11     0     0     0     0     0     0     0     0     0     0     0     0     0     0     0     0     0     0     0     0     0     0     0     0     0     0     0     0     0     0     0     0     0     0     0     0     0     0     0     0     0     0     0     0     0     0     0     0     0     0     0     0     0     0     0     0     0     0     0     0     0     0     0     0     0     0     0     0     0     0     0     0     0     0     0     0     0     0     0     0     0     0     0     0     0     0     0     0     0     0     0     0     0     0     0     0     0     0     0     0     0     0     0     0     0     0     0     0     0     0     0
95   101   100    93    80    65    54    42    37    29    21    16    15    23    24    26    16     6     0     0     0     0     0     0     0     0     0     0     0     0     0     0     0     0     0     0     0     0     0     0     0     0     0     0     0     0     0     0     0     0     0     4     9     9    11    14    16    17    19    23    27    33    39    54    61    67    62    45    34    30    29    22    18    13    16    14    12    16    22    21    16    11     0     0     0     0     0     0     0     0     0     0     0     0     0     0     0     0     0     0    33    54    51    48    38     0     0    20    38    44    62    66    64    66    58    51    36    30    29    43    69    98   104   104    95    66     0     0     0     0     0     0     0     0     0     3    13     9     6     0     0     0     0     0     0     0     0     0     0     0     0     0     0     0     0     0     0     0     0     0     0     0     0     0     0     0     0     0     0     0     0     0     0     0     0     0     0     0     0     0     0     0     0     0     0     0     0     0     0     0     0     0     0     0     0     0     0     0     0     0     0     0     0     0     0     0     0     0     0     0     0     0     0     0     0     0     0     0     0     0     0     0     0     0     0     0     0     0     0     0     0     0     0     0     0     0     0     0     0     0     0     0     0     0     0     0     0     0     0     0
82    95    92    86    74    61    46    35    28    23    22    16    13    15    18    23    20     8     0     0     0     0     0     0     0     0     0     0     0     0     0     0     0     0     0     0     0     0     0     0     0     0     0     0     0     0     0     0     0     0     0     0     0     3     5     8    11    12    13    16    21    28    33    39    53    63    66    60    43    40    39    36    31    32    30    30    29    37    34    34    26    15     9     4     5     0     0     0     0     0     0     0     0     0     0     0     0     0     0     0    22    30    29    18     0     0     0     0    20    28    38    68    62    67    69    56    48    43    33    47    76    87   104   102    80     0     0     0     0     0     0     0     0     0     0     0     0     0     0     0     0     0     0     0     0     0     0     0     0     0     0     0     0     0     0     0     0     0     0     0     0     0     0     0     0     0     0     0     0     0     0     0     0     0     0     0     0     0     0     0     0     0     0     0     0     0     0     0     0     0     0     0     0     0     0     0     0     0     0     0     0     0     0     0     0     0     0     0     0     0     0     0     0     0     0     0     0     0     0     0     0     0     0     0     0     0     0     0     0     0     0     0     0     0     0     0     0     0     0     0     0     0     0     0     0     0     0     0     0     0
82    78    81    81    76    65    51    34    29    23    25    19    14    12     9    12    15     0     0     0     0     0     0     0     0     0     0     0     0     0     0     0     0     0     0     0     0     0     0     0     0     0     0     0     0     0     0     0     0     0     0     0     0     4     3     6     7     7     9     8    12    17    26    33    42    52    60    63    60    56    55    47    46    55    57    56    47    44    47    46    35    22    17     8     5    10     0     0     0     0     0     0     0     0     0     0     0     0     0     0     4    21    23    16     0     0     0     0     0     8    19    30    49    61    67    70    50    38    36    48    73    84    87    87    70     0     0     0     0     0     0     0     0     0     0     0     0     0     0     0     0     0     0     0     0     0     0     0     0     0     0     0     0     0     0     0     0     0     0     0     0     0     0     0     0     0     0     0     0     0     0     0     0     0     0     0     0     0     0     0     0     0     0     0     0     0     0     0     0     0     0     0     0     0     0     0     0     0     0     0     0     0     0     0     0     0     0     0     0     0     0     0     0     0     0     0     0     0     0     0     0     0     0     0     0     0     0     0     0     0     0     0     0     0     0     0     0     0     0     0     0     0     0     0     0     0     0     0     0     0
56    61    78    79    82    74    57    39    29    23    23    17    10     7     6     4     7     0     0     0     0     0     0     0     0     0     0     0     0     0     0     0     0     0     0     0     0     0     0     0     0     0     0     0     0     0     0     0     0     0     0     0     5     5     6     7     7     8     9     8    14    15    19    27    36    48    57    64    71    77    70    64    60    58    66    64    71    78    72    54    41    28    23    17    12    10     0     0     0     0     0     0     0     0     0     0     0     0     0     0     0     8    16    14     0     0     0     0     2     6     9    13    33    54    65    65    48    31    27    32    55    66    77    77    61     0     0     0     0     0     0     0     0     0     0     0     0     0     0     0     0     0     0     0     0     0     0     0     0     0     0     0     0     0     0     0     0     0     0     0     0     0     0     0     0     0     0     0     0     0     0     0     0     0     0     0     0     0     0     0     0     0     0     0     0     0     0     0     0     0     0     0     0     0     0     0     0     0     0     0     0     0     0     0     0     0     0     0     4     3     3     3     3     4     0     0     0     0     0     0     0     0     0     0     0     0     0     0     0     0     0     0     0     0     0     0     0     0     0     0     0     0     0     0     0     0     0     0     0     0
41    49    58    69    75    72    63    52    38    26    22    23    16     9     6     5     0     0     0     0     0     0     0     0     0     0     0     0     0     0     0     0     0     0     0     0     0     0     0     0     0     0     0     0     0     0     0     0     0     0     0     0     5     6     6     5     5     7    13    19    22    19    18    24    36    49    59    68    72    75    78    77    74    68    64    71    72    83    77    66    43    36    29    21    15     8     0     0     0     0     0     0     0     0     0     0     0     0     0     0     0     0     0     7     9     6     0     4     0     8     9    18    40    56    62    56    37    20    13    13    23    47    61    55    24     0     0     0     0     0     0     0     0     0     0     0     0     0     0     0     0     0     0     0     0     0     0     0     0     0     0     0     0     0     0     0     0     0     0     0     0     0     0     0     0     0     0     0     0     0     0     0     0     0     0     0     0     0     0     0     0     0     0     0     0     0     0     0     0     0     0     0     0     0     0     0     0     0     0     0     0     0     0     0     0     0     0     5     4     5     6     6     6     8     4     4     3     3     1     0     0     0     0     0     0     0     0     0     0     0     0     0     0     0     0     0     0     0     0     0     0     0     0     0     0     0     0     0     0     0
35    44    58    65    64    67    67    67    55    41    36    28    13    11     7     0     0     0     0     0     0     0     0     0     0     0     0     0     0     0     0     0     0     0     0     0     0     0     0     0     0     0     0     0     0     0     0     0     0     0     0     0     5     8    11    10    13    14    15    26    37    36    29    30    37    47    55    68    79    82    93    93    97    90    81    79    87    87    74    58    41    32    25    19    16    10     0     0     0     0     0     0     0     0     0     0     0     0     0     0     0     0     0     0     8     9    10     8    13    14    20    28    49    64    64    47    26    14     6     7    10    14    25    24    13     0     0     0     0     0     0     0     0     0     0     0     0     0     5    12    13    11     3     0     0     0     0     0     0     0     0     0     0     0     0     0     0     0     0     0     0     0     0     0     0     0     0     0     0     0     0     0     0     0     0     0     0     0     0     0     0     0     0     0     0     0     0     0     0     0     0     0     0     0     0     0     0     0     0     0     0     0     0     0     0     0     0    10     8    11    15    14    10    10    11    11     8     6     0     0     0     0     0     0     0     0     0     0     0     0     0     0     0     0     0     0     0     0     0     0     0     0     0     0     0     0     0     0     0     0
34    44    55    56    49    59    63    73    72    66    52    47    22    15     9     0     0     0     0     0     0     0     0     0     0     0     0     0     0     0     0     0     0     0     0     0     0     0     0     0     0     0     0     0     0     0     0     0     0     0     0     6     7    12    15    13    14    18    22    33    39    43    41    43    50    58    68    74    80    89    94   101   103    96    87    94    98    92    75    50    38    32    24    20    15    12     7     5     3     0     0     0     0     0     0     0     0     0     0     0     0     0     0     0     6     8    12    13    12    21    29    43    56    62    60    39    21    12     5     8    10    12    14    20    15     8     0     0     0     0     0     0     0     0     0     0     0     0     8    19    21    25    12     6     4     2     0     0     0     0     0     0     0     0     0     0     0     0     0     0     0     0     0     0     0     0     0     0     0     0     0     0     0     0     0     0     0     3     0     0     0     0     0     0     0     0     0     0     0     0     0     0     0     0     0     0     0     0     0     0     0     0     7     3     4     8     9     8    17    15    18    13    11    12    11    14    10     6     4     4     2     0     0     0     0     0     0     0     0     0     0     0     0     0     0     0     0     0     0     0     0     0     0     0     0     0     0     0     0     0
30    41    51    53    50    51    60    72    79    77    62    53    40    23    15     8     4     0     0     0     0     0     0     0     0     0     0     0     0     0     0     0     0     0     0     0     0     0     0     0     0     0     0     0     0     0     0     0     0     0     0     9    11    14    16    16    16    22    27    33    40    52    56    58    64    72    78    83    82    88    98    96   106   106   102   102   103    93    75    52    42    39    32    22    14    14    11     6     4     0     0     0     0     0     0     0     0     0     0     0     0     0     0     0     0     5    11    16    23    35    44    49    56    59    48    35    25    22    18    11     9    13    14    14    16    12     8     4     0     0     0     0     0     0     0     0     0     6    19    30    31    24    22    11     7     6     3     0     0     0     0     2     3     2     0     0     0     0     0     0     0     0     0     0     0     0     0     0     0     0     0     0     0     0     0     0     0     5     5     2     0     0     0     0     0     0     0     0     0     0     0     0     0     0     0     0     0     0     0     0     0     0     2     4     7     9    10    13    18    19    14    11    17    20    20    15    11     8     7     5     0     0     0     0     0     0     0     0     0     0     0     0     0     0     0     0     0     0     0     0     0     0     0     0     0     0     0     0     0     0
21    32    37    47    49    51    56    69    80    81    72    61    47    27    18    10     7     5     4     2     0     0     0     0     0     0     0     0     0     0     0     0     0     0     0     0     0     0     0     0     0     0     0     0     0     0     0     0     0     0     0    10    13    14    14    18    23    25    30    40    49    64    71    72    75    77    79    82    85    89    93    97   103   104   104   109   107    87    70    53    45    40    34    30    24    15    14    10     6     0     0     0     0     0     0     0     0     0     0     0     0     0     0     0     0     0     0     0    20    35    51    49    59    52    39    29    22    23    22    17    13    18    15    20    28    25    15    10     0     0     0     0     0     0     0     0     0     9    26    36    38    31    21    16    10     6     3     0     5     0     5     4     6     5     0     0     0     0     0     0     0     0     0     0     0     0     0     0     0     0     0     0     0     0     0     0     4     8    10     9     5     0     0     0     0     0     7    13     8     0     2     2     2     0     0     0     0     0     0     0     0     0     4     6    13    12    12    14    18    19    19    25    29    32    31    24    23    14    10     7     9     6     6     0     3     0     0     0     0     0     0     0     0     0     0     0     0     0     0     0     0     0     0     0     0     0     0     0     5     7
18    25    32    42    47    44    49    62    73    76    71    58    46    30    17     9     7     4     4     0     0     0     0     0     0     0     0     0     0     0     0     0     0     0     0     0     0     0     0     0     0     0     0     0     0     0     0     0     0     0     0    11    14    13    14    21    30    35    39    47    59    73    76    76    79    80    87    88    87    90    90    88    89    90    89    99   100    91    79    61    51    48    48    43    33    19    13     9     4     0     0     0     0     0     0     0     0     0     0     0     0     0     0     0     0     0     0     0     0    23    32    49    49    43    32    28    26    24    21    18    19    21    23    23    32    31    27    19     0     0     0     0     0     0     0     0     0    12    23    38    47    43    33    26    16     7     4     4     3     5     4     7     8     8     0     0     0     0     0     0     0     0     0     0     0     0     0     0     0     0     0     0     0     0     0     0     8    12    11     9     5     0     0     0     2     7    11    15     8     4     6     0     7    14    11     7     0     0     0     0     0     0     8    13    14    13    14    15    20    26    33    36    43    48    50    45    33    28    18    16    10     9     9     6     6     6     4     7     0     0     0     0     0     0     0     0     0     0     0     0     0     0     0     0     0     0     0     0    12    20
16    21    22    24    30    34    43    58    74    79    72    60    50    40    24    12     8     5     3     4     0     0     0     0     0     0     0     0     0     0     0     0     0     0     0     0     0     0     0     0     0     0     0     0     0     0     0     0     0     0     3    10    11    12    16    26    37    45    48    53    59    70    76    75    79    85    86    84    79    71    73    74    74    77    82    95    92    91    89    76    68    61    56    50    43    28    12     9     6     7     5     4     0     2     3     5     7     0     0     0     0     0     0     0     0     0     0     0     0     0    21    36    44    41    32    25    19    16    19    24    31    32    33    42    41    38    32    19     0     0     0     0     0     0     0     0     0    15    32    42    48    51    51    49    24    14    10     9     6    10    13    12    13    12     0     0     0     0     0     0     0     0     0     0     0     0     0     0     0     0     0     0     0     0     0     0     9    11    11    11     3     0     0     0     5    13    20    15    15    14     9    12    15    28    27    20    13     0     0     0     0     5    10    13    12    12    17    22    34    41    47    61    64    63    59    49    46    42    31    24    15    10    10     7     8    16    20    16    12     6     0     0     0     0     0     0     0     0     0     0     0     0     0     0     0    11    12    21    32    47
15    18    15    14    20    29    39    55    72    79    73    61    51    45    35    20    11     4     3     3     0     0     0     0     0     0     0     0     0     0     0     0     0     0     0     0     0     0     0     0     0     0     0     0     0     0     0     0     0     0     3     6     9    10    14    24    38    47    46    51    59    69    74    75    77    80    80    75    64    55    56    62    68    68    74    83    86    93    96    87    79    75    66    59    46    28    16    10     8     8     7     5     5     5     8    11    10     9     8     5     4     0     0     0     0     0     0     0     0     0     6    22    33    34    31    20    15    15    21    32    33    37    48    52    51    46    30     0     0     0     0     0     0     0     0     0    12    24    45    50    54    57    59    55    46    27    16    14    16    18    23    22    16    15     8     5     4     3     0     0     0     0     0     0     0     0     0     0     0     0     0     0     0     0     0     0     5    14    17    20    15    10     8     4     7    16    18    21    20    15    18    20    31    36    27    17     8     6     0     0     0     5    14    19    23    23    30    35    48    63    65    73    87    80    72    62    55    61    48    36    21    15    12     9    18    27    30    23    14     7     4     3     0     0     0     0     0     0     0     0     0     0     0     0     8    18    47    50    60    74
15    14    13    15    23    32    41    56    64    69    70    64    62    55    45    35    27    17    10     5     6     0     0     0     0     0     0     0     0     0     0     0     0     0     0     0     0     0     0     0     0     0     0     0     0     0     0     0     0     0     5     6     9    14    13    23    33    44    47    50    55    69    73    78    77    73    71    64    50    45    47    56    60    62    69    77    86    92   101    96    88    84    75    60    48    39    29    22    21    15     8     7     6     7    13    12    15    14    11     9     6    11     3     3     5     0     0     0     0     0     4     9    23    32    28    21    16    19    26    30    35    42    49    47    51    45    28     0     0     0     0     0     0     0     0     0    19    29    49    49    53    52    53    54    52    50    32    25    31    35    39    25    22    23    14    11    10    10     8     9     8     4     0     0     0     0     0     0     0     0     0     0     0     0     0     0     0     0    15    25    21    23    22    16    18    15    27    37    42    39    44    57    59    52    33    28    22    14     0     0     0     8    17    29    28    31    45    54    57    67    74    86    88    93    86    76    69    71    61    45    29    25    19    18    25    32    34    21     9     8     6     4     0     0     0     0     0     0     0     0     0     0     4     9    20    40    51    61    75    88
10    15    16    25    35    42    51    59    60    59    60    66    62    59    55    48    40    31    23    14     8     0     0     0     0     0     0     0     0     0     0     0     0     0     0     0     0     0     0     0     0     0     0     0     0     0     0     0     0     0     6     9    14    15    13    19    30    42    47    51    54    66    70    74    66    60    59    52    42    41    43    53    59    58    63    71    81    90   100   103    95    89    75    61    52    47    43    39    36    28    21    14     9     9    17    21    21    20    13     9     6    10     9     5     2     0     0     0     0     0     0     0     0    11    23    27    24    26    32    29    31    36    44    45    47    36    27     0     0     0     0     0     0     3     3     7    25    34    39    47    52    56    66    71    68    61    60    47    53    54    43    39    37    24    26    17    13    11    11    12     9     3     0     0     0     0     0     0     0     0     0     0     0     0     0     0     0     0     0    18    23    28    36    29    24    27    44    51    54    62    77    91   105    99    94    70    53    23    10     7     8     7    12    24    26    30    35    49    58    69    70    82    91    92    91    90    90    85    79    60    47    40    31    28    28    32    25    15    11    10     9     5     0     0     0     0     0     0     0     0     0     0    10    13    20    40    51    64    84    87
13    20    27    37    44    52    57    58    54    51    50    49    51    56    59    52    48    44    36    21    12     0     0     0     0     0     0     0     0     0     0     0     0     0     0     0     0     0     0     0     0     0     0     0     0     0     0     0     0     1     6    11    14    15    16    18    28    38    43    49    54    57    64    62    53    52    52    44    40    49    54    58    54    58    64    73    82    90   101   105   100    91    74    62    56    55    50    49    45    33    28    23    23    15    18    24    25    27    23    18    15    11     7     8     5     0     0     0     0     0     0     0     0     0    17    26    29    31    30    20    22    26    21    28    36    32    17     0     0     0     0     0     2     4     7    14    23    38    41    44    54    74    93    98    92    80    64    59    55    57    46    42    42    31    30    22    15    11    12    13    13     0     0     0     0     0     0     0     0     0     0     0     0     0     0     0     0     0     0    10    19    33    42    45    44    55    64    65    75    85   100   109   116   119   109    91    83    62    26    10     8     9     0     0     0    12    19    24    39    59    63    74    83    84    85    90    91    96    86    77    65    51    35    29    24    19    17    13    11     9     4     4     3     3     2     0     0     0     0     0     0     0    11    13    11    26    43    65    80    83
18    28    34    44    54    60    56    47    39    33    33    33    36    42    56    49    49    51    44    31    17     0     0     0     0     0     0     0     0     0     0     0     0     0     0     0     0     0     0     0     0     0     0     0     0     0     0     0     0     1     6     9    10    11    15    17    22    25    33    42    44    48    54    53    46    42    41    42    47    55    60    64    63    66    70    76    83    95   104   105    99    95    79    61    56    54    49    47    46    38    33    31    22    19    28    30    44    38    36    33    27    18    14     9     7     0     0     0     0     0     0     0     0     0     9    14    15    21    25    11    12     0     0     6     6     8    11     9     7     6     0     5     6     8    12    23    34    44    39    45    61    95   109   107   104    95    77    64    54    47    43    39    34    30    27    25    23    18    17    16    13     0     0     0     0     0     0     0     0     0     0     0     0     0     0     0     0     0     0     4    11     8    35    49    58    76    85    87    89   100   115   120   127   137   130   107    97    82    61    24     8     0     0     0     0     4     3     9    13    35    53    62    71    77    84    86    93   101    96    84    76    63    46    30    24    22    23    21    21    21    13     7     5     6     5     0     0     0     0     0     0     0     0    14    18    13    27    40    74    82
26    37    45    55    63    61    52    34    30    15    21    26    30    31    36    40    46    52    45    41    27    10     3     0     0     0     0     0     0     0     0     0     0     0     0     0     0     0     0     0     0     0     0     0     0     0     0     0     0     0     0     0     4     5     6    10    13    16    21    35    40    43    46    46    43    41    43    44    54    61    68    69    71    74    79    85    94   103   110   105    90    75    65    58    51    41    38    41    43    39    36    24    18    20    28    43    51    57    57    48    39    26    19    13     8     0     2     3     2     0     0     0     0     0     5    14    14    20    13     0     0     0     0     3     3     5     7     6    10    13    16    12    11    14    22    40    52    50    51    62    91   109   118   116   106    89    70    50    44    37    33    32    37    36    44    48    47    40    35    29    17     8     6     4     0     0     0     0     0     0     0     0     0     0     0     3     5     0     6     6     8     9    14    40    69    88    90    90    91   101   113   115   134   130   131   117   105   103    74    50    14     0     0     0     5     3     4     7     8    17    38    51    56    66    86    90    98   100   106    96    85    74    62    52    39    31    32    32    32    30    24    18    13     7     6     0     0     0     0     0     0     0     0    14    18    14    22    32    67    74
32    37    46    53    57    58    47    33    19    13    17    19    22    23    28    32    38    47    44    42    25    15     0     0     0     0     0     0     0     0     0     0     0     0     0     0     0     0     0     0     0     0     0     0     0     0     0     0     0     0     0     0     2     4     4     7     7     7     9    17    28    34    37    34    36    37    40    45    54    63    73    72    77    81    88    96   104   108   110   101    82    68    61    55    47    33    28    29    33    28    23    18    12    12    23    37    50    58    57    55    50    40    34    24    17    10     6     0     5     2     2     3     0     0     0     0     0    14     7     0     0     0     0     3     5     8    12    14    15    18    18    18    17    25    39    61    75    78    79    94   102   115   114   111   100    83    66    45    41    47    39    35    47    68    83    87    76    66    54    41    31    17    12     8     6     3     2     3     0     2     2     0     0     0     0     6     0     7     6     5     9    11    17    35    64    88    88    84    83    96   105   117   120   137   130   125   106    97    73    63    26     9     0     0     5     6     5     8    10    17    27    32    47    53    72    86    95    93   103   100    94    85    70    59    52    47    51    52    42    36    27    19    14     9     5     0     0     0     0     0     0     0     0    13    17    24    27    38    60    69
22    36    37    48    55    50    46    38    23    11     9    11    16    25    25    27    34    40    40    35    20     6     0     0     0     0     0     0     0     0     0     0     0     0     0     0     0     0     0     0     0     0     0     0     0     0     0     0     0     0     0     0     4     6     6     7     9     9     9    11    15    25    30    33    37    38    43    44    46    56    67    76    75    80    90    97   104   113   108    90    72    63    57    55    39    30    24    19    24    18    14    11     9     8    13    18    36    50    52    52    54    53    47    34    30    21    13     6     6     7     6     3     5     0     0     0     0     0     0     0     0     0     0     0     0     0    13    20    22    25    30    33    36    39    62    77   100   101    97   101   115   119   114   108   100    87    75    60    52    56    51    63    83    96   103   106   100    88    73    60    46    32    21    12     8     6     0     3     3     0     3     3     4     6    15    18    12     8     8     6    10    11    13    22    34    64    81    77    72    76    86   100    97   111   118   105    96    90    77    59    38    20     9     7     4     4     7    10    12    11    20    30    36    48    58    70    81    96    92    93    91    84    79    73    64    55    58    58    54    37    27    20    14    10     0     0     0     0     0     0     0     0    12    11    16    18    23    28    43    57
8    16    21    32    46    48    44    39    31    15    10    12    13    18    20    26    33    37    37    33    20    11     0     0     0     0     0     0     0     0     0     0     0     0     0     0     0     0     0     0     0     0     0     0     0     0     0     0     0     0     0     4     5     5     6     6     6     9    10    12    17    23    30    33    36    36    38    44    46    54    64    72    70    76    86    94    99   104    95    71    62    61    50    38    34    26    18    13    13    11     6     6     6     5     6    13    24    41    47    46    50    54    58    52    45    35    26    14     9     5     6     8     0     0     0     0     0     0     0     0     0     0     0     0     0     0     0    14    25    24    40    47    51    63    84   103   107   109   103   103   108   113   111   109   102    92    84    73    66    66    66    82    98   111   115   115   113    97    81    72    59    40    37    20    10     8     9     6     5     3     3     4     5    10    20    21    21    17    13    10     9     7     9    13    14    32    55    55    52    55    60    68    79    90    89    91    92    80    77    59    45    30    16    10     5     2     5     9    11    11    16    27    34    42    48    52    59    76    80    83    83    83    86    86    76    64    65    62    55    38    29    22    16    11     0     0     0     0     0     0     0    10    12    15    17    21    28    32    38    44
7     8    11    22    37    47    46    41    34    15    14    12     8    12    15    20    29    27    28    30    24    13     7     5     0     0     0     0     0     0     0     0     0     0     0     0     0     0     0     0     0     0     0     0     0     0     0     0     0     0     0     0     0     4     6     6    10    10    12    15    22    27    30    32    36    36    35    40    44    50    58    66    66    74    83    88    88    83    75    68    64    52    42    32    29    21    16    14    17     9     6     5     6     5     8     7    17    29    32    34    43    47    53    47    47    41    38    29    24    11     5     8     0     0     0     0     0     0     0     0     0     0     0     0     0     0     0     0     0    11    34    46    68    82    99   111   108   112   101    94    87    95   103   110   108   101    90    87    74    69    90   104   112   117   115   111   111    94    81    77    53    39    33    23    14     9     7     8     8     7     6     5     8    10    15    23    24    22    15    12     9     7     6     9     8    10    13    14    16    23    40    54    65    69    69    65    65    70    72    62    53    37    24     9     8     6     2     4     9    10    17    24    27    39    38    44    59    54    57    65    71    79    79    82    72    69    63    59    50    37    25    17    14    14     0     0     0     0     0     0     0     8    14    20    28    34    37    41    44    44
0     0     4     8    21    36    45    46    37    18    13     9     7    10    11    16    21    21    24    34    29    19    11     8     6     3     4     4     2     0     0     0     0     0     0     0     0     0     0     0     0     0     0     0     0     0     0     0     0     0     0     0     0     0     0     0     5    15    17    24    30    34    39    44    43    36    34    38    46    48    55    64    59    63    74    77    79    83    76    70    66    53    41    31    26    18    15    10    12     6     7     5     4     7     4     5     9    22    30    34    37    39    37    39    42    39    34    29    34    28    19    11     8     6     4     2     0     0     0     0     0     0     0     0     0     0     0     0     0     0    15    37    65    79   100   106   111    97    77    68    71    75    88   100   108   106    97    90    88    92   100    98   106   115   116   114    98    81    71    53    38    28    24    17    11    10    10     9     8     6     6     8    13    10    17    29    34    33    26    16     8     7     6     6     7     8     7    17    20    17    29    38    52    53    54    63    65    59    63    65    62    46    27    13     9     7     6     4     7     9    13    16    18    29    36    41    47    46    47    51    58    58    62    66    67    63    56    53    46    37    25    12    14    14     0     0     0     0     0     0     9    13    14    26    39    49    57    56    55    59
0     0     3     5     7    28    42    49    44    28    15     7     6     9     9    17    19    22    26    34    29    28    17    11     7     5    12     7     4     0     0     0     0     0     0     0     0     0     0     0     0     0     0     0     0     0     0     0     0     0     0     0     0     0     0     0     4     9    16    27    36    47    53    58    55    50    51    44    49    45    49    53    49    56    64    70    76    82    83    83    72    61    50    37    28    19    11     8     0     0     0     0     4     4     6     7    11    23    27    30    25    23    24    22    12    14    15    25    30    31    28    24    12     8     8     5     0     0     0     0     0     0     0     0     0     0     0     0     0     5     4    14    39    75    91    93    89    75    62    56    65    74    74    82    93   101   102   100    96    98    99    96    98    96   103    93    80    64    56    43    33    26    26    21    18    15    14    13    12     9     8    11    14    14    22    33    40    40    31    25    14    13    13    12    17    22    21    21    22    22    30    31    40    50    55    61    65    63    58    68    69    55    31    16     7     8    13    14    10    10    14    10    13    28    32    36    40    39    35    40    53    54    47    47    43    50    53    49    42    31    22    18    18    12     0     0     0     0     0     0    12    13    20    30    47    64    79    79    75    74
0     0     3     4    10    24    38    51    47    29    15     7     7     6    13    18    18    18    20    28    29    28    21    13     9     9     9     9     7     0     0     0     0     0     0     0     0     0     0     0     0     0     0     0     0     0     0     0     0     0     0     0     0     0     0     0     4    10    14    30    43    51    60    68    74    72    62    55    53    55    51    55    53    53    56    64    71    86    93    90    78    72    65    50    29    17    10     0     0     0     0     0     0     0     4     9    16    26    27    26    20    18    15    12    10    10    10    12    19    30    35    34    27    12     8     7     0     0     0     0     0     0     0     0     0     0    14    14    16    12     6     7    19    53    73    86    81    59    49    43    54    64    73    80    85    88    94    91    90    81    78    82    78    71    64    76    70    50    43    40    41    43    42    36    34    33    27    22    17    13    16    22    24    26    28    31    34    34    38    34    28    28    29    28    32    36    32    50    55    44    40    39    43    46    57    62    58    65    66    67    70    61    46    27    15    16    17    18    14    15    20    20    25    29    31    38    36    35    35    29    29    33    33    34    33    38    44    40    32    24    19    15     9     0     0     0     0     0     0     7    11    15    23    37    54    78    85    90    90    84
0     6     6     5    11    23    36    48    49    37    25    14    10    12    11    15    12    10    11    16    25    31    28    17    13     9     8     8     9     0     0     0     0     0     0     0     0     0     0     0     0     0     0     0     0     0     0     0     0     0     0     0     0     0     0     0     5    10    15    31    41    49    62    73    78    79    77    74    69    70    65    59    63    63    61    67    77    91    98    97    91    79    64    48    29    16    10     0     0     0     0     0     0     6    14    11    21    29    27    23    19    18    14    13    12     8     6     8    10    18    32    38    37    23    14     8     0     0     0     0     0     0     0     0     0     7    12    16    17    14    10     7    11    27    59    72    65    50    43    44    50    61    72    75    75    74    70    58    46    53    59    61    60    58    58    58    54    43    45    48    51    51    48    45    41    40    37    30    27    27    27    28    32    36    36    41    47    44    41    46    50    50    52    52    50    50    50    59    59    58    50    45    47    55    57    65    70    68    70    69    67    63    57    54    38    25    21    19    24    24    31    34    32    30    37    39    40    38    31    33    29    24    25    25    26    28    28    25    19    11     6     5     5     0     0     0     0     0     0     0     0    15    21    38    69    86    97    99    93    91
0     0     0     9    11    12    30    42    40    35    28    18    12    13    14    11    12    12    10    14    22    33    34    25    19    15    16    18    15    11     7     2     0     0     0     0     0     0     0     0     0     0     0     0     0     0     0     0     0     0     0     0     0     0     0     0     7    10    13    29    39    45    53    71    84    82    87    93    84    79    76    74    82    82    79    76    87    90    96   101    94    79    63    47    27    15     0     0     0     0     0     0     0     7    14    10    24    29    24    21    17    15    13    10    12    12    10     5     8    14    31    44    40    32    23     9     0     0     0     0     0     0     0     0     0     7    11    15    12     9     9    11     8    16    38    54    55    53    49    49    60    68    73    81    76    68    47    41    35    39    53    63    65    63    61    57    54    49    55    56    55    57    54    51    49    45    41    33    33    37    38    40    47    54    58    62    64    59    62    61    67    69    69    67    64    65    67    73    72    73    71    68    65    61    72    73    81    83    82    80    77    76    74    60    56    36    34    33    32    39    49    52    46    44    46    48    46    53    54    54    39    32    28    24    23    23    24    19    10     8     7     7     5     0     0     0     0     0     0     0     0    11    20    34    62    85    91    97   102    88
0     0     5     7     8     9    18    27    24    21    18    15    13    13    12     7    12    12     9    13    22    31    34    36    30    29    25    28    28    21    13     0     0     0     0     0     0     0     0     0     0     0     0     0     0     0     0     0     0     0     0     0     0     0     0     5     9    11    13    24    37    46    45    51    68    84    94    98    97    90    88    93    97   103    96    97    97    99    98   100    92    74    59    40    24    13     0     0     0     0     0     0     0     7    11    17    16    21    21    16    14    14    12    11    10     9     9     9    14    25    41    49    46    34    25    12     0     0     0     0     0     3     4     3     4     7     7     9     4     4     7    10    12    18    33    45    53    56    59    64    71    74    84    80    73    58    50    41    39    48    52    58    65    58    67    62    61    61    66    63    62    68    69    59    52    48    43    38    40    45    46    51    57    62    68    70    73    70    72    71    78    77    72    67    68    74    79    82    85    86    84    80    79    76    88    88    89    89    90    91    90    87    83    74    62    49    50    50    48    53    55    56    55    57    64    67    73    62    58    54    48    44    39    32    25    21    20    13    10     9     7     7     4     2     1     1     0     0     0     0     4    13    21    32    51    72    96   103    99    83
0     0     5     7     8    10    13    13    11    10     8    12    12    11     7     7     0     0    10    12    14    20    29    35    32    35    36    38    37    32    20     7     0     0     0     0     0     0     0     0     0     0     0     0     0     0     0     0     0     0     0     0     0     0     0     6     7    10    11    12    23    30    36    42    59    73    84    96   104   102   110   116   116   110   109   110   109   108   105    97    84    64    51    37    24     0     0     0     0     0     0     0     0     0     7     5     4     8    13    14    12    10    14    13    12    12    11    14    23    33    47    50    47    38    28    11     0     0     0     0     5     8     8     4    10    15    12     8     6     9     9    10    16    20    24    41    54    61    64    67    72    78    86    78    77    61    52    48    42    47    50    62    59    59    66    74    72    74    80    84    82    77    75    71    65    59    53    46    45    45    50    56    59    65    75    81    86    87    85    83    87    88    79    79    85    88    87    91    96    97    93    93    96    97    98    99    94    93   100   106   109   106    97    88    78    74    76    66    65    69    69    68    71    77    82    80    86    78    76    68    61    54    44    36    31    24    18    17    13    12     8     5     5     4     3     0     1     0     0     0     0     8    16    27    45    56    78    89    91    89
0     0     7     9     8     6     6     5     5     7    10    11    11     8     0     0     0     0     0     0     5     4    10    21    21    26    31    43    36    38    23     0     0     0     0     0     0     0     0     0     0     0     0     0     0     0     0     0     0     0     0     0     0     0     0     6    10    10     8     8    14    24    31    33    46    64    77    91   106   113   118   124   126   126   123   124   125   114   108    91    75    57    33    28    18     0     0     0     0     0     0     0     0     0     8     7     6     8    14    14     9    13    14    14    10     7     7    18    29    37    47    56    53    45    29     9     0     0     0     0     8    11    10    10    13    12    10    16    14    10    10    10    11    15    19    39    57    70    68    76    70    65    79    79    64    58    55    49    48    54    63    70    74    80    79    73    87    86    90   104   106    98    91    87    81    76    68    54    50    51    54    65    70    79    92    94    95    97    97    95    95    92    91    99   102   106   107   107   107   106   104   105   112   114   114   109   105   106   116   120   125   120   107    97   103   106   107   103   102    94    99    93    90    91    93    89    92    92    91    80    69    66    58    38    35    39    34    20    20    20    11     6     4     3     3     2     0     0     0     0     0     7    10    14    21    46    70    86    91    86
0     0     0     0     0     4     2     3     5     6     8    11    12     9     0     0     0     0     0     0     3     3     5     7     9    16    21    32    33    31    24     0     0     0     0     0     0     0     0     0     0     0     0     0     0     0     0     0     0     0     0     0     0     0     3     8    10    10     8     7    15    26    34    39    50    59    72    83    95   106   121   130   134   130   129   136   131   118   101    84    67    53    37    29     0     0     0     0     0     0     0     0     0     0     9     6    10     7     6    12    15    21    20    16    14    15    19    29    37    41    51    55    56    48    29    12     7     5     0     5     9    11    12    11    12    13    18    22    18    14    11    12    14    15    17    30    50    63    70    69    68    52    56    57    57    48    51    56    62    69    74    78    88    97   102   100    98   100   105   119   123   120   111   108    94    88    78    64    57    58    64    72    81    91    99   103   113   114   115   113   110   108   114   116   114   112   119   120   122   123   127   130   133   129   128   122   122   122   134   137   132   126   124   112   112   116   114   113   115   106   102   102   100    95    94    94   104   111   104    94    83    83    67    62    58    52    45    41    39    29    21    16     6     6     4     3     0     0     0     0     0     6     6     7     9    19    52    75    86    85
0     0     0     0     0     0     0     0     0     0     7    10    13     9     8     0     0     0     0     1     3     4     5     3     7    18    24    33    34    36    27     8     0     0     0     0     0     0     0     0     0     0     0     0     0     0     0     0     0     0     0     0     0     0     3     6     9    11    11    13    19    24    33    40    49    64    73    83    88   103   114   124   130   128   133   131   121   102    88    85    67    58    47    29     0     0     0     0     0     0     0     0     0     0     5     6    12    13    16    23    28    36    37    33    29    27    36    48    51    53    53    50    43    35    25    14     8     7     7     7    11    15    16    12    16    22    28    30    26    17    12    12    11    13    19    29    40    55    62    57    45    30    24    40    42    49    53    64    73    77    81    89    96   106   115   121   123   124   127   133   137   134   120   111   106    99    92    85    83    79    79    83    89    95    99   106   114   121   124   125   124   122   126   128   127   128   133   133   132   134   141   141   137   135   133   131   131   131   141   142   137   125   128   125   127   123   119   115   115   114   109   109   104   100    97    98   103   108   109   104    94    86    85    85    76    56    63    61    50    41    35    27    21    14     9     6     4     0     0     0     0     0     0     5     9     8    31    64    84    84
0     0     0     0     0     0     0     0     0     4     8    11    11     9     8     0     0     0     0     5     8     7     5     4     8    14    24    34    37    33    21     9     0     0     0     0     0     0     0     0     0     0     0     0     0     0     0     0     0     0     0     0     0     0     4     4     8    12    16    19    23    33    42    48    55    60    73    80    94    99   108   102   104   108   115   113   105    93    81    69    66    62    41    32     0     0     0     0     0     0     0     0     0     0     0     0    10    19    26    32    37    43    42    43    36    34    46    57    66    65    59    51    42    33    25    15     9     6     6     7    12    18    18    20    26    32    37    41    36    23    14    14    10    18    23    39    45    46    46    42    32    25    27    27    37    51    60    64    70    76    81    93   112   122   127   135   141   141   141   144   145   139   133   128   122   115   106   103   102    95    92    96    98    98   100   109   121   131   132   133   134   133   135   136   136   141   144   143   139   142   150   150   146   143   137   136   142   147   142   145   136   128   127   125   124   126   115   115   112   111   101    99    96    95    92    98   104   106   103   106    96    98    97    95    86    74    73    73    59    50    41    36    27    20    11     6     6     5     0     2     0     0     0     0     0     8    14    43    68    77
0     0     0     0     0     0     0     0     0     3     6     7     9     9     8     0     0     0     0     0     0     0     0     5     6     8    22    26    33    29    16     0     0     0     0     0     0     0     0     0     0     0     0     0     0     0     0     0     0     0     0     0     0     0     4     6     6    13    15    18    27    36    41    48    53    57    68    86    87    98    97    92    94   103   106   105    96    84    73    61    55    47    38    17     0     0     0     0     0     0     0     0     0     0     0     0     9    15    19    36    38    41    53    51    50    47    52    61    70    62    59    50    42    34    25    18     9     5     7     9    12    18    21    24    29    39    48    52    47    33    23    16    15    28    43    48    46    45    43    39    35    33    34    33    39    50    54    64    79    86    91   107   124   132   151   157   155   151   150   149   150   149   147   142   133   124   119   119   115   107   105   109   109   109   114   122   132   143   148   143   139   143   148   150   151   152   150   148   147   149   154   155   153   149   146   149   153   151   147   133   122   115   112   107   106   104   110   107   103   101    93    93    89    86    85    93    98   102   101   101   100   102   101   102    95    87    86    77    73    52    41    31    27    17    11     7     7     6     6     3     0     0     0     0     0     6    11    34    50    58
3     0     0     0     0     0     0     0     0     0     3     4     6     7     0     0     0     0     0     0     0     0     0     9     6     9    20    20    23    26     0     0     0     0     0     0     0     0     0     0     0     0     0     0     0     0     0     0     0     0     0     0     0     0     5     5    11    14    14    17    23    28    34    41    47    52    63    73    79    84    87    88    85   100   112   109    96    81    67    52    41    29    29    12     0     0     0     0     0     0     0     0     0     0     0     0    12    12    15    24    34    39    44    46    53    57    59    65    67    61    55    48    42    35    28    21    14     8     7     0    10    15    23    30    31    45    54    56    53    43    32    26    23    30    49    54    61    66    67    59    44    39    38    38    43    50    56    69    88    95   105   119   132   150   159   156   162   156   151   157   150   152   148   142   136   129   130   132   131   134   127   129   129   131   138   152   160   168   164   152   145   152   156   160   164   166   165   164   163   168   168   167   164   158   155   150   143   133   123   117   109   107    95    94    92    91    94    90    84    88    85    89    86    79    80    86    90    96   102   102    94   101   100   103   104    97    90    86    70    53    40    34    27    20    18    11     9     4     0     4     0     0     0     0     0     7     8    20    29    38
7     0     0     0     0     0     0     0     0     0     0     0     0     0     0     0     0     0     0     0     0     0     3     6     8    14    14    16    21    12     0     0     0     0     0     0     0     0     0     0     0     0     0     0     0     0     0     0     0     0     0     0     0     0     7    12    12    14    13    14    18    22    28    32    35    42    50    57    60    65    74    82    83    97   114   109    92    74    62    42    31    26    18     0     0     0     0     0     0     0     0     0     0     0     0     0    14    14    14    16    27    35    41    42    51    57    67    74    71    66    62    52    44    36    32    22    17     8     7     7     7    11    22    28    36    47    58    59    56    45    35    26    22    34    46    60    65    70    66    63    67    62    48    47    49    51    60    73    86    99   110   123   137   151   153   158   152   148   150   147   148   142   141   144   151   148   147   154   157   152   143   141   141   153   169   180   186   189   181   168   158   157   167   168   174   178   170   168   166   168   166   163   161   156   151   136   126   124   114   106    97    90    89    84    82    82    84    83    80    78    79    83    81    76    78    81    84    87    94    96    97    94   101   107   108   101    99    85    69    57    47    44    42    35    23    14    11     6     3     0     0     0     0     0     0     3     7     9    12    16
10     0     0     0     0     0     0     0     0     0     0     0     0     0     0     0     0     0     0     0     0     0     4     4     6     6     8     8    11     0     0     0     0     0     0     0     0     0     0     0     0     0     0     0     0     0     0     0     0     0     0     0     0     0     7     9    11    12    11     9     9    15    20    27    29    35    39    46    53    61    67    72    84   100   102   107    87    72    53    40    30    23    13     0     0     0     0     0     0     0     0     0     0     0     0    15    20    19    23    23    20    32    36    44    51    59    68    78    78    75    69    58    43    36    31    20    15     8     6     4     7    17    24    33    42    55    68    61    53    42    34    26    21    25    40    47    63    68    72    75    77    79    73    60    53    58    66    80    80    92   105   123   130   144   139   133   131   132   139   134   125   128   131   140   151   151   157   165   172   169   162   154   158   172   184   193   202   206   201   196   186   177   178   180   182   180   172   168   165   162   154   146   140   137   130   123   119   120   114   101    89    87    82    77    82    88    88    84    82    83    86    86    85    84    85    83    85    80    86    91    90    89    88    94   102    98    97    86    75    64    61    60    61    53    50    34    20    11     5     5     5     2     0     2     0     0     0     6     4     6
9     0     0     0     0     0     0     0     0     0     0     0     0     0     0     0     0     0     0     0     0     0     0     0     0     0     3     4     5     0     0     0     0     0     0     0     0     0     0     0     0     0     0     0     0     0     0     0     0     0     0     0     0     5     5     7     8     8     5     8     9    10    13    16    20    32    38    44    47    52    61    68    82    99   100    88    70    58    47    36    28    23    10     0     0     0     0     0     0     0     0     0     0     0     0    15    19    17    21    26    26    29    40    42    48    61    69    74    79    78    72    61    51    42    31    21    18    13    11    18    18    21    31    42    52    64    73    66    51    43    34    26    20    21    30    42    45    64    80    83    87    85    73    72    73    80    86    85    95    98   102   109   126   124   122   120   119   126   113   111   114   118   124   131   137   155   160   166   179   183   175   173   173   184   194   200   202   205   208   210   207   200   187   186   174   159   157   148   144   135   133   129   117   113   116   119   117   115   105    95    92    92    88    84    85    90    90    87    86    90    91    92    97    97    91    87    86    80    76    78    78    80    84    85    91    90    85    83    80    82    77    76    84    85    76    58    38    25    12    10     9     4     2     0     0     0     0     0     3     6
7     4     4     2     0     0     0     0     0     0     0     0     0     0     0     0     0     0     0     0     0     0     0     0     0     0     0     0     0     0     0     0     0     0     0     0     0     0     0     0     0     0     0     0     0     0     0     0     0     0     0     0     0     6    10     8    10     8     4     5     7    11    16    19    22    32    34    44    48    56    65    69    74    89    94    84    63    48    42    36    31    25     0     0     0     0     0     0     0     0     0     0     0     0     0    10    14    17    25    32    32    41    47    51    55    61    66    68    67    76    74    67    58    47    31    19    17    14    13    21    26    28    44    67    68    73    73    67    53    43    34    27    25    25    27    41    46    61    76    92    99    91    91    92   100   114   109   110   106   104   105   107   107   100    99   100    98    96    92    93    99   106   115   126   136   148   154   167   178   187   182   187   188   190   199   208   211   218   211   212   208   206   193   175   155   139   135   130   129   125   119   106   105   104   109   110   102    94    92    88    92    97   101    99    98    99    96    97    94    97    97    98   102   104   100    95    86    82    74    72    65    70    75    82    74    75    79    78    80    83    90    96    92    92    91    76    57    42    25    17    12     8     4     3     0     0     2     3     7     9
6     4     5     5     4     4     4     4     2     0     0     0     0     0     0     0     0     0     0     0     0     0     0     0     0     0     0     0     0     0     0     0     0     0     0     0     0     0     0     0     0     0     0     0     0     0     0     0     0     0     0     0     0     7    12    13    10     8     8     9     9    16    26    25    33    36    39    44    54    63    62    63    65    76    86    79    61    47    42    36    30    19     0     0     0     0     0     0     0     0     0     0     0     0     0     8     7    15    24    32    38    48    54    57    58    59    62    65    63    67    72    74    65    53    42    24    21    19    19    26    31    43    61    81    87    92    91    67    56    47    40    35    32    30    30    36    47    52    76    92   105   103   109   111   118   122   120   128   125   119   114   110   103    93    86    87    73    74    78    80    88    99   106   114   126   142   153   156   169   186   190   196   196   197   208   210   212   214   213   208   206   195   178   159   144   129   123   117   113   108   103   100    98   100   102    98    96    95    94   101   105   106   111   109   105   109   106   108   111   118   126   129   128   124   123   112    93    86    76    62    59    61    59    57    61    67    69    74    82    85    91    96   103   102    99    96    79    58    37    24    16     7     3     4     3     3     0     0     7    10
4     4     4     5     6     5     7     7     5     4     0     0     0     0     0     0     0     0     0     0     0     0     0     0     0     0     0     0     0     0     0     0     0     0     0     0     0     0     0     0     0     0     0     0     0     0     0     0     0     0     0     0     5     7    12    14    12    15    15    11    16    27    38    45    47    51    50    50    55    57    58    62    67    75    79    72    60    45    36    30    27    11     0     0     0     0     0     0     0     0     0     0     0     0     0     0     5     7    14    21    29    44    48    48    54    51    50    56    60    66    76    79    68    59    49    38    26    32    33    37    45    58    74    83    88    95   100    90    72    56    46    43    45    40    38    40    46    58    72    97   106   116   122   123   130   119   123   132   130   126   119   114   108    99    88    77    71    71    69    72    85    91    93   101   116   133   146   148   153   171   189   200   204   201   201   213   210   206   207   193   191   177   167   156   134   120   116   111   107   100    97   100   103   103   103   102    99   102   106   109   113   116   122   121   117   119   119   125   130   142   151   151   154   150   144   127   105    88    74    59    52    51    47    41    44    49    65    63    74    82    92    93    95   101    99    95    80    70    45    26    16    10     7     5     4     4     3     0     6    10
7     5     6     7    11     6     6    10     7     6     4     0     0     0     0     0     0     0     0     0     0     0     0     0     0     0     0     0     0     0     0     0     0     0     0     0     0     0     0     0     0     0     0     0     0     0     0     0     0     0     0     0     6     7    11    15    18    25    30    30    35    45    54    55    57    64    62    61    60    66    70    72    77    83    82    75    66    53    47    30    19     5     0     0     0     0     0     0     0     0     0     0     0     0     0     8     5     6    13    14    21    32    35    37    41    39    36    39    54    70    78    76    68    63    56    47    41    42    49    52    54    76    83    89    95   104   112   107    96    79    62    55    59    58    55    54    57    67    83    96   109   126   131   130   127   126   131   139   139   130   118   109   109    96    84    73    67    69    71    72    77    83    89    95   104   116   123   128   133   149   168   186   198   195   195   190   184   177   177   179   174   164   156   141   124   114   112   107   107    99    96    99   102   103   105   102    98   102   108   116   118   123   127   126   123   124   132   147   156   156   160   160   164   158   155   138   119    95    78    68    56    49    44    37    38    38    47    59    70    77    81    85    85    88    88    86    79    72    54    35    25    13    13     9     5     5     3     5     4     7
11    10    11    16     6     5     6     6     7     6     3     0     0     0     0     0     0     0     0     0     0     0     0     0     0     0     0     0     0     0     0     0     0     0     0     0     0     0     0     0     0     0     0     0     0     0     0     0     0     0     0     0     8     8     8    11    13    23    31    37    45    54    63    64    73    76    72    69    65    67    72    79    90    91    89    86    78    62    44    29    20     0     0     0     0     0     0     0     0     0     0     0     0     0     0     8     8     7    14    10    14    21    25    27    29    30    29    31    44    58    71    74    74    68    57    55    53    55    62    69    79    86    89    96   104   113   119   115   102    92    78    72    71    68    64    65    71    82    95   105   117   130   147   140   137   141   147   148   143   137   118   107   101    85    77    69    64    69    71    71    68    77    86    93   102   104   104   121   114   126   149   169   172   173   174   168   174   169   168   164   159   155   149   134   122   118   110   109   109   108   105   100   101   104   106   102   103   108   113   123   128   131   134   134   136   150   166   169   170   170   170   174   168   167   157   150   131   109    91    76    63    53    50    40    38    36    26    30    54    63    73    71    68    70    73    74    73    69    61    54    40    29    17    16     9     8     5     3     4     5
20    17    14    16     7     7     4     4     5     5     5     3     0     0     0     0     0     0     0     0     0     0     0     0     0     0     0     0     0     0     0     0     0     0     0     0     0     0     0     0     0     0     0     0     0     0     0     0     0     0     0     5     7     9    10     9    12    20    30    37    47    57    71    79    87    89    89    85    77    70    72    77    85    99    96    91    80    68    52    30    17     0     0     0     0     0     0     0     0     0     0     0     0     0     0    12     9     7     9     9    14    15    16    17    20    25    31    37    46    64    73    84    78    73    61    61    60    68    76    86    93    94    95   103   116   122   121   118   110   101    91    88    86    80    73    74    80    90    99   108   132   150   150   153   151   157   151   151   139   128   113    99    89    79    74    70    65    63    60    59    60    66    73    81    87    94    99   105   108   118   129   145   151   156   158   159   156   152   150   145   147   149   142   133   126   123   122   121   125   128   121   111   102   101   104   105   110   118   125   119   121   125   133   140   152   170   177   181   183   185   181   170   167   162   155   155   133   113    96    84    69    57    53    43    32    27    23    16    24    40    47    54    54    49    56    62    63    67    69    69    62    50    40    30    21    16    11     5     4     5
27    23    24    18    12    12     9     8     8     7     7     7     5     3     2     2     0     0     0     0     0     0     0     0     0     0     0     0     0     0     0     0     0     0     0     0     0     0     0     0     0     0     0     0     0     0     0     0     0     0     0     5     9     9    10    11     9    20    31    41    54    63    82    93    98    96    97    96    92    82    84    91    97   109   102    96    86    69    51    35    17     0     0     0     0     0     0     0     0     0     0     0     0     0     0     8    12    13    14    19    13    13    14    20    25    30    40    53    66    70    83    90    81    71    66    65    67    79    88    94    97   107   109   111   125   130   127   120   113   110   108   106   102    96    92    89    89    95   106   129   154   147   158   163   161   161   150   144   127   112   105    90    77    70    69    68    68    64    62    61    59    64    65    70    77    83    90    97   104   113   122   127   134   143   148   147   144   140   138   136   135   135   132   131   129   131   135   141   143   141   127   117   110   105   102   103   105   115   121   117   120   120   130   145   162   181   185   184   185   190   178   165   152   148   150   134   125   110   102    94    89    73    64    48    38    29    20    18    17    24    28    39    40    40    44    45    50    60    63    64    62    56    49    40    28    22    15     9     7     5
